# .PCD v0.7 - Point Cloud Data file format
VERSION 0.7
FIELDS x y z intensity ring
SIZE 4 4 4 4 2
TYPE F F F F U
COUNT 1 1 1 1 1
WIDTH 1276
HEIGHT 1
VIEWPOINT 0 0 0 1 0 0 0
POINTS 1276
DATA ascii
0.12027338 0.94923639 -0.057309665 0 25
0.1091344 0.95538378 -0.057595432 0 25
0.097597182 0.95879501 -0.057724368 0 25
0.085781276 0.95970291 -0.057711162 0 25
0.17059463 2.2154558 -0.1330889 0 25
0.14496441 2.2424908 -0.13459572 0 25
0.11842033 2.2639775 -0.13578771 0 25
2.107522 52.708958 -3.1595581 0 25
1.4485974 52.344967 -3.1364343 0 25
0.7994681 52.006882 -3.1153522 0 25
0.15881048 51.640659 -3.0930636 0 25
-0.48703006 52.818504 -3.1637311 0 25
-1.1290709 52.466766 -3.1432569 0 25
-0.032478701 0.96019369 -0.057544284 0 25
-0.043312203 0.93869603 -0.056283593 0 25
-0.056442071 0.96530908 -0.057916529 0 25
-0.067149103 0.94819462 -0.056934934 0 25
-0.077615187 0.93302333 -0.05607703 0 25
-0.090708941 0.94902688 -0.057101604 0 25
-0.10361663 0.95937407 -0.057796475 0 25
-0.11445028 0.9501034 -0.057318423 0 25
-0.12792847 0.96219897 -0.058138639 0 25
-0.14023852 0.96391422 -0.058342062 0 25
-0.15508625 0.98113716 -0.05949543 0 25
-0.16512173 0.96734339 -0.058777664 0 25
-0.17769705 0.96902329 -0.059008043 0 25
-9.9903688 50.941078 -3.1092694 0 25
-10.57402 50.613632 -3.0969853 0 25
-11.516274 51.925949 -3.1857083 0 25
-12.11077 51.596836 -3.1744134 0 25
-12.702607 51.275864 -3.1640368 0 25
-13.292488 50.963886 -3.1546333 0 25
-13.872598 50.630486 -3.1443172 0 25
-14.46136 50.342186 -3.1372192 0 25
-15.03342 50.008118 -3.1276841 0 25
-15.60677 49.690887 -3.1196103 0 25
-16.179535 49.382217 -3.1124868 0 25
-16.751429 49.079739 -3.1061702 0 25
-17.902554 50.41592 -3.2044246 0 25
-18.485506 50.095551 -3.1982677 0 25
-19.067158 49.778576 -3.1927583 0 25
-19.643002 49.452839 -3.1871169 0 25
-20.228539 49.156479 -3.1838074 0 25
-20.798185 48.826031 -3.1787286 0 25
-21.369345 48.503944 -3.1746266 0 25
-21.949785 48.206066 -3.1725559 0 25
-22.526405 47.901833 -3.1705236 0 25
-1.0827007 2.2306938 -0.14851499 0 25
-1.124245 2.2455733 -0.15041465 0 25
-1.1595583 2.2466691 -0.15143166 0 25
-1.207611 2.2708211 -0.15404883 0 25
-1.2458996 2.2748983 -0.15535298 0 25
-1.2855489 2.2802892 -0.15678877 0 25
-1.3120098 2.26176 -0.15661217 0 25
-1.3059734 2.1888955 -0.15266721 0 25
-1.3182359 2.1489494 -0.15100026 0 25
-1.3171463 2.0891001 -0.14792173 0 25
-1.3083146 2.0196157 -0.14412998 0 25
-1.3258802 1.9926045 -0.14335501 0 25
-1.3096083 1.9166278 -0.13903701 0 25
-1.3166525 1.876969 -0.13732415 0 25
-1.3087708 1.8177752 -0.13416067 0 25
-1.3091369 1.7719235 -0.1319547 0 25
-1.3142731 1.7338574 -0.13031358 0 25
-1.3138278 1.6897038 -0.12819959 0 25
-1.3209207 1.6563886 -0.12689468 0 25
-1.3501896 1.6510303 -0.12774645 0 25
-1.3470143 1.6064295 -0.1255676 0 25
-1.3585426 1.5802981 -0.12482137 0 25
-1.055544 0.98343885 -0.086410195 0 25
-1.0708003 0.97333491 -0.08667279 0 25
-1.1048822 0.97977728 -0.08844959 0 25
-1.1276801 0.97549033 -0.089307629 0 25
-1.1434005 0.96476728 -0.089606337 0 25
-1.1669213 0.9603008 -0.090517372 0 25
-1.1767662 0.94437611 -0.090373427 0 25
-1.212671 0.94891483 -0.092227779 0 25
-1.2522321 0.95528162 -0.094336033 0 25
-1.2803811 0.95208031 -0.095567442 0 25
-1.2985431 0.94101369 -0.096052118 0 25
-1.3375243 0.94439983 -0.098069116 0 25
-8.3371353 5.7343841 -0.60607433 0 25
-1.5194248 1.0177873 -0.10953765 0 25
-8.3739319 5.461328 -0.59880286 0 25
-8.3997326 5.3321066 -0.5959143 0 25
-8.4130516 5.196548 -0.59228116 0 25
-8.4218464 5.0599899 -0.58847553 0 25
-8.4250145 4.9219322 -0.58442372 0 25
-8.4331303 4.7885761 -0.58085817 0 25
-8.4706316 4.6730828 -0.57943958 0 25
-8.4646997 4.5349603 -0.5751757 0 25
-1.3828712 0.71913087 -0.093358062 0 25
-8.884697 4.4823728 -0.59604263 0 25
-9.2304115 4.515275 -0.61546409 0 25
-9.6230841 4.5615916 -0.63785839 0 25
-10.043793 4.6106405 -0.6619367 0 25
-10.497096 4.6633306 -0.68798053 0 25
-10.946809 4.7028184 -0.71361077 0 25
-11.457212 4.7560825 -0.74301475 0 25
-12.00634 4.8118377 -0.77473068 0 25
-11.948711 4.619051 -0.7672891 0 25
-11.979575 4.4624634 -0.76568943 0 25
-11.993231 4.3003778 -0.76312476 0 25
-12.01615 4.1425743 -0.76128423 0 25
-12.025681 3.9811101 -0.75872928 0 25
-12.050113 3.8254521 -0.75724572 0 25
-12.062136 3.6666338 -0.7551108 0 25
-12.092095 3.5139163 -0.75422436 0 25
-12.091681 3.3531291 -0.75156999 0 25
-12.116547 3.2001216 -0.75061291 0 25
-12.13702 3.0463929 -0.74950397 0 25
-12.163245 2.8944767 -0.74886888 0 25
-12.171535 2.7387683 -0.74724936 0 25
-12.19337 2.5865893 -0.74658078 0 25
-12.207236 2.4330783 -0.74554157 0 25
-12.223319 2.2803912 -0.74475497 0 25
-12.248973 2.1296725 -0.74466616 0 25
-12.262741 1.9770511 -0.74396896 0 25
-12.267103 1.8232976 -0.74281722 0 25
-12.28848 1.6723137 -0.74281037 0 25
-12.310615 1.5214028 -0.74296129 0 25
-12.321193 1.3691224 -0.7425276 0 25
-12.333908 1.2172086 -0.74233574 0 25
-12.350101 1.0656508 -0.74246556 0 25
-12.371935 0.91443336 -0.74304599 0 25
-12.406085 0.76371235 -0.74447674 0 25
-12.39589 0.61019713 -0.74335843 0 25
-12.431908 0.4588238 -0.74512368 0 25
-12.444687 0.3061308 -0.74560767 0 25
-12.455232 0.15318845 -0.74607021 0 25
-12.456722 3.3055028e-05 -0.74610299 0 25
-12.482955 -3.3124641e-05 -0.63243282 0 26
-12.501281 -0.15375482 -0.6334092 0 26
-12.50606 -0.30764052 -0.63379502 0 26
-12.532475 -0.46253547 -0.63537401 0 26
-12.546612 -0.61761653 -0.63642758 0 26
-12.581645 -0.77451968 -0.63863945 0 26
-12.573804 -0.92935395 -0.63877326 0 26
-12.597016 -1.0869563 -0.64058304 0 26
-40.284363 -50.515186 -3.2734458 0 26
-39.571941 -50.893173 -3.2661607 0 26
-38.874271 -51.284958 -3.2603803 0 26
-38.15736 -51.646191 -3.2532704 0 26
-37.464153 -52.034637 -3.2484748 0 26
-36.748264 -52.386902 -3.2420113 0 26
-36.058468 -52.772007 -3.2381594 0 26
-35.363926 -53.14682 -3.2342308 0 26
-34.675327 -53.527519 -3.2312064 0 26
-33.985935 -53.90443 -3.2284875 0 26
-34.70887 -56.581379 -3.3630011 0 26
-33.986565 -56.963665 -3.3606296 0 26
-33.257046 -57.33147 -3.3579488 0 26
-32.54163 -57.721901 -3.3571258 0 26
-31.824444 -58.108517 -3.3565979 0 26
-31.107439 -58.49519 -3.3565845 0 26
-29.156109 -56.490585 -3.2207398 0 26
-28.469395 -56.864925 -3.22188 0 26
-27.780403 -57.236107 -3.2233121 0 26
-27.102049 -57.631824 -3.2265856 0 26
-26.407597 -57.996304 -3.2285676 0 26
-25.706976 -58.349464 -3.230386 0 26
-25.009163 -58.711765 -3.2331743 0 26
-24.317909 -59.09388 -3.2375052 0 26
-23.617203 -59.458206 -3.2413099 0 26
-22.922342 -59.843296 -3.2466917 0 26
-22.223667 -60.225933 -3.2523789 0 26
-21.521545 -60.607471 -3.2584457 0 26
-20.809378 -60.969063 -3.2638822 0 26
-20.105976 -61.366268 -3.2716634 0 26
-19.389172 -61.733803 -3.2782991 0 26
-18.675524 -62.123436 -3.2865469 0 26
-17.955931 -62.507317 -3.2949257 0 26
-17.235535 -62.90411 -3.30442 0 26
-16.505981 -63.284534 -3.3134918 0 26
-15.773865 -63.673428 -3.3234468 0 26
-14.456566 -61.590885 -3.2052274 0 26
-13.748425 -61.990532 -3.216984 0 26
-13.032213 -62.380028 -3.2286367 0 26
-12.306978 -62.753513 -3.2398899 0 26
-11.578277 -63.139034 -3.2521975 0 26
-10.84566 -63.53783 -3.2656226 0 26
-10.107849 -63.94627 -3.279979 0 26
-9.3617477 -64.346947 -3.2943771 0 26
-8.6042433 -64.715813 -3.307595 0 26
-7.5595412 -62.755161 -3.2023942 0 26
-6.8209648 -63.154503 -3.2182491 0 26
-6.0725789 -63.533321 -3.2335036 0 26
-5.319171 -63.942516 -3.2507548 0 26
-4.5583057 -64.366623 -3.2692189 0 26
-3.7876122 -64.778214 -3.2875099 0 26
-2.899822 -62.847218 -3.1874607 0 26
-2.1407702 -63.289295 -3.2083042 0 26
-1.3705248 -63.686882 -3.227361 0 26
-0.5914458 -64.14241 -3.2498307 0 26
0.19851807 -64.552437 -3.2704816 0 26
0.96457171 -62.747181 -3.1793804 0 26
1.7481904 -63.170742 -3.2016895 0 26
2.543097 -63.602657 -3.2249215 0 26
3.3486354 -64.019714 -3.24791 0 26
4.1698961 -64.505173 -3.2748928 0 26
4.8334365 -62.770233 -3.1895871 0 26
5.650382 -63.215294 -3.2154896 0 26
6.4799194 -63.658749 -3.2418542 0 26
7.3239317 -64.11512 -3.2694345 0 26
7.924499 -62.542713 -3.1939797 0 26
8.7681274 -62.980923 -3.221621 0 26
9.6338253 -63.474358 -3.2526753 0 26
10.183192 -61.94973 -3.1807234 0 26
11.048201 -62.407711 -3.2109704 0 26
11.937673 -62.915241 -3.244391 0 26
12.456967 -61.512516 -3.1797142 0 26
13.351909 -62.00275 -3.2132995 0 26
14.261826 -62.484814 -3.2471256 0 26
14.759855 -61.188824 -3.1889679 0 26
15.682137 -61.675426 -3.2241342 0 26
16.153624 -60.409657 -3.1681092 0 26
17.107754 -60.964016 -3.2079718 0 26
18.067732 -61.469246 -3.2460027 0 26
18.530079 -60.29208 -3.1956308 0 26
19.522402 -60.846352 -3.2374873 0 26
19.996531 -59.786873 -3.1939566 0 26
20.99428 -60.295113 -3.2346549 0 26
21.487341 -59.350964 -3.1979368 0 26
21.95035 -58.377193 -3.1597729 0 26
23.010502 -58.984776 -3.207732 0 26
23.493919 -58.103607 -3.1752825 0 26
24.569288 -58.67662 -3.2228634 0 26
25.070951 -57.867058 -3.1950886 0 26
25.591074 -57.13139 -3.1716044 0 26
26.129049 -56.461166 -3.1519957 0 26
27.264971 -57.06422 -3.2041359 0 26
27.826012 -56.443661 -3.1882627 0 26
28.402294 -55.869823 -3.1753366 0 26
28.999479 -55.349148 -3.1657717 0 26
29.620781 -54.882687 -3.1596856 0 26
30.252592 -54.440983 -3.1554341 0 26
30.908461 -54.045265 -3.1542885 0 26
31.982336 -54.360912 -3.1954219 0 26
32.659172 -53.981506 -3.1964843 0 26
33.345924 -53.616848 -3.1989295 0 26
34.094879 -53.347095 -3.2076066 0 26
34.075893 -51.899826 -3.1455426 0 26
34.837559 -51.663937 -3.1569703 0 26
35.618256 -51.445583 -3.170151 0 26
36.453785 -51.293144 -3.1881385 0 26
36.459633 -49.988152 -3.134655 0 26
37.321606 -49.87027 -3.1558027 0 26
38.26939 -49.847118 -3.1838753 0 26
38.244957 -48.567135 -3.1319203 0 26
39.224518 -48.570316 -3.1629896 0 26
40.195637 -48.539478 -3.1929274 0 26
40.210411 -47.359631 -3.1476038 0 26
41.297436 -47.444977 -3.1867852 0 26
41.274502 -46.257618 -3.1408851 0 26
42.40036 -46.359154 -3.18294 0 26
42.394268 -45.223186 -3.1405005 0 26
43.586266 -45.363731 -3.1872389 0 26
43.582813 -44.257816 -3.1469531 0 26
44.825863 -44.414322 -3.1970327 0 26
44.850578 -43.359035 -3.1605306 0 26
44.831326 -42.286472 -3.1222961 0 26
46.174915 -42.493153 -3.17924 0 26
46.148911 -41.432896 -3.1421332 0 26
46.151207 -40.421215 -3.1082127 0 26
47.58149 -40.651031 -3.1706355 0 26
47.575294 -39.644249 -3.1375015 0 26
47.581726 -38.668304 -3.1063335 0 26
49.063526 -38.88068 -3.1716199 0 26
49.060219 -37.905422 -3.1410382 0 26
49.069878 -36.95837 -3.112325 0 26
50.633091 -37.168907 -3.1822448 0 26
50.642799 -36.226303 -3.1546199 0 26
50.660686 -35.305603 -3.1284547 0 26
50.65453 -34.383789 -3.1017306 0 26
52.330887 -34.589489 -3.1780946 0 26
52.354958 -33.687813 -3.154161 0 26
52.36858 -32.793163 -3.1304514 0 26
52.364754 -31.901228 -3.106539 0 26
54.167305 -32.092884 -3.1898227 0 26
54.157818 -31.194052 -3.1664364 0 26
54.155602 -30.312164 -3.1442766 0 26
54.15741 -29.444574 -3.1231241 0 26
54.182102 -28.600546 -3.1040325 0 26
54.154327 -27.739922 -3.0826669 0 26
56.097565 -27.869976 -3.1735353 0 26
56.097054 -27.014891 -3.1544755 0 26
56.088127 -26.165958 -3.1356437 0 26
56.119961 -25.345341 -3.1197643 0 26
56.117565 -24.518051 -3.1026366 0 26
56.106033 -23.695805 -3.0856562 0 26
58.204384 -23.743008 -3.1847615 0 26
58.19371 -22.908167 -3.1685247 0 26
58.209793 -22.091787 -3.154371 0 26
58.207821 -21.275997 -3.1398499 0 26
58.187019 -20.460936 -3.1249199 0 26
58.195736 -19.663376 -3.1121676 0 26
58.190414 -18.867651 -3.0992415 0 26
58.200317 -18.083105 -3.0876925 0 26
58.193653 -17.299366 -3.0758209 0 26
60.441608 -17.161669 -3.1832421 0 26
60.459858 -16.366266 -3.1733644 0 26
60.454224 -15.569542 -3.1627808 0 26
60.447361 -14.777687 -3.1526768 0 26
60.427753 -13.987796 -3.1424456 0 26
60.465023 -13.215301 -3.1356962 0 26
60.441311 -12.433488 -3.1263015 0 26
60.452862 -11.663005 -3.1192451 0 26
60.458862 -10.894886 -3.1124067 0 26
60.465458 -10.130116 -3.1060989 0 26
60.444714 -9.3640928 -3.0988841 0 26
60.464912 -8.6073208 -3.0942595 0 26
60.444836 -7.8474674 -3.0880604 0 26
60.463829 -7.0951152 -3.0843406 0 26
60.455357 -6.3415828 -3.0796976 0 26
60.454124 -5.5908699 -3.0759001 0 26
60.455421 -4.8420949 -3.0727046 0 26
60.444736 -4.0939503 -3.0693707 0 26
60.447838 -3.3480768 -3.0672057 0 26
60.452156 -2.603195 -3.0655689 0 26
62.868668 -1.9331684 -3.1866653 0 26
62.875114 -1.1597861 -3.1860285 0 26
62.884338 -0.3866131 -3.1860139 0 26
62.873306 0.38654527 -3.1854551 0 26
62.886646 1.1599988 -3.1866128 0 26
62.872231 1.933278 -3.186846 0 26
60.441357 2.6027298 -3.0650213 0 26
60.447258 3.3480446 -3.0671763 0 26
60.460205 4.0949979 -3.0701563 0 26
60.460251 4.8424816 -3.0729499 0 26
60.451561 5.5906329 -3.0757699 0 26
60.460762 6.3421502 -3.079973 0 26
60.466152 7.0953879 -3.0844591 0 26
60.461124 7.8495827 -3.0888927 0 26
60.454323 8.605813 -3.0937178 0 26
60.453365 9.3654327 -3.0993276 0 26
60.46051 10.129287 -3.1058447 0 26
60.442448 10.891929 -3.1115618 0 26
60.453896 11.663204 -3.1192985 0 26
60.451221 12.435527 -3.1268141 0 26
60.46455 13.215198 -3.1356716 0 26
60.436878 13.989908 -3.1429203 0 26
60.460217 14.780829 -3.1533473 0 26
60.457283 15.57033 -3.1629407 0 26
60.455517 16.365091 -3.1731365 0 26
60.449169 17.163815 -3.1836402 0 26
58.180031 17.295315 -3.0751009 0 26
58.196514 18.081924 -3.0874908 0 26
58.191948 18.868149 -3.0993233 0 26
13.405875 4.5296235 -0.71691382 0 26
13.011501 4.575376 -0.69877952 0 26
12.593718 4.6032286 -0.67933106 0 26
12.253011 4.6502643 -0.66398698 0 26
11.926809 4.6950321 -0.64938962 0 26
11.578893 4.7233167 -0.63356072 0 26
11.280008 4.7639952 -0.62036514 0 26
11.003488 4.8074803 -0.60836256 0 26
11.022961 4.9782767 -0.61277729 0 26
11.029362 5.1453638 -0.61660373 0 26
11.055378 5.3239846 -0.6216712 0 26
11.065073 5.4972677 -0.62597018 0 26
11.076521 5.6738186 -0.63051701 0 26
11.118265 5.8688831 -0.63695306 0 26
11.122757 6.047277 -0.64142191 0 26
11.141472 6.2361436 -0.64687437 0 26
11.170749 6.434176 -0.65311843 0 26
11.195049 6.6328096 -0.65925789 0 26
11.225314 6.838594 -0.66594172 0 26
11.248278 7.043663 -0.67239147 0 26
11.261753 7.2463784 -0.67847216 0 26
11.270698 7.449667 -0.6844781 0 26
11.310966 7.6777701 -0.69260478 0 26
11.333489 7.8983464 -0.6998781 0 26
11.357497 8.1243563 -0.70747638 0 26
11.379082 8.3531933 -0.71516514 0 26
11.420526 8.6016932 -0.72436267 0 26
11.432453 8.8330622 -0.73195291 0 26
11.469824 9.0893288 -0.74144524 0 26
11.500354 9.3460083 -0.75079107 0 26
11.522408 9.6015644 -0.75988126 0 26
11.557762 9.8743219 -0.77016187 0 26
11.587864 10.149151 -0.78042483 0 26
11.614892 10.427952 -0.79082125 0 26
11.662673 10.732748 -0.8029995 0 26
11.54423 10.888922 -0.8040027 0 26
11.28997 10.914513 -0.79558158 0 26
11.049814 10.948367 -0.78808558 0 26
10.789038 10.956137 -0.77903634 0 26
10.555127 10.98557 -0.77184206 0 26
10.32735 11.016481 -0.76503378 0 26
10.093902 11.036339 -0.75773609 0 26
9.8701401 11.061774 -0.75109273 0 26
9.6489611 11.085307 -0.74457812 0 26
9.4330378 11.110188 -0.73840243 0 26
9.2210054 11.135108 -0.73246753 0 26
9.0018721 11.146696 -0.72589362 0 26
8.8045654 11.180886 -0.72101521 0 26
8.600193 11.202029 -0.71550506 0 26
8.3969688 11.220286 -0.71002239 0 26
8.1951199 11.235958 -0.704584 0 26
8.0024529 11.260037 -0.69987047 0 26
8.0321198 11.601274 -0.7148872 0 26
8.0752192 11.975513 -0.73177421 0 26
8.1246719 12.374411 -0.74998778 0 26
8.1681061 12.780356 -0.76844585 0 26
8.2045174 13.192027 -0.7870729 0 26
8.2596703 13.652197 -0.80840713 0 26
0.15872949 0.96563518 -0.049579207 0 26
0.14788944 0.97439867 -0.049932014 0 26
0.13704301 0.9843716 -0.050352901 0 26
0.12257807 0.96742576 -0.049405247 0 26
0.1083127 0.94819045 -0.048351251 0 26
0.097387262 0.95673269 -0.0487221 0 26
0.085973315 0.96185148 -0.04892524 0 26
0.16891885 2.1936929 -0.11146963 0 26
0.14487538 2.2411137 -0.11378013 0 26
0.11970539 2.2885454 -0.1161047 0 26
-0.032251328 0.95347172 -0.048334043 0 26
-0.043775968 0.94874716 -0.048118189 0 26
-0.054559212 0.93310726 -0.047355417 0 26
-0.06606894 0.93294191 -0.047384676 0 26
-0.078380026 0.94221753 -0.04790112 0 26
-0.089319281 0.93448782 -0.047560394 0 26
-0.1035 0.95829415 -0.048833087 0 26
-0.11345562 0.94184631 -0.048062392 0 26
-0.12741353 0.95832586 -0.048979592 0 26
-0.13974261 0.9605056 -0.049175102 0 26
-0.1544825 0.97731763 -0.050129291 0 26
-0.16594808 0.97218436 -0.049966883 0 26
-0.17899615 0.97610754 -0.050277844 0 26
-26.405106 57.990833 -3.2282629 0 26
-27.099749 57.62693 -3.2263117 0 26
-1.0933665 2.2526686 -0.12686142 0 26
-1.1266525 2.2503817 -0.1275032 0 26
-1.1692073 2.2653642 -0.1291569 0 26
-1.2032517 2.262624 -0.12983441 0 26
-1.2481295 2.27897 -0.13164312 0 26
-1.2778336 2.2666037 -0.13182646 0 26
-1.3072282 2.2535172 -0.13199025 0 26
-1.3108054 2.1969941 -0.12961392 0 26
-1.3130386 2.1404769 -0.12722254 0 26
-1.3171812 2.0891554 -0.12512538 0 26
-1.3140663 2.0284946 -0.12245075 0 26
-1.3134036 1.9738539 -0.12011818 0 26
-1.3129935 1.921582 -0.11791079 0 26
-1.3155453 1.8753905 -0.11606026 0 26
-1.3145384 1.825786 -0.11398215 0 26
-1.3190855 1.7853892 -0.11246432 0 26
-1.3274682 1.751265 -0.11133459 0 26
-1.309256 1.6838242 -0.10806244 0 26
-1.3116559 1.6447707 -0.10658316 0 26
-1.3438298 1.6432536 -0.10754751 0 26
-1.3473446 1.6068232 -0.1062395 0 26
-1.3682997 1.5916479 -0.10634055 0 26
-1.048569 0.97694027 -0.072608523 0 26
-1.060396 0.96387756 -0.072601281 0 26
-1.0972332 0.97299433 -0.074298613 0 26
-1.1225941 0.97109079 -0.075201653 0 26
-1.1410226 0.96276081 -0.075637385 0 26
-1.1671482 0.9604876 -0.076580532 0 26
-1.1799852 0.94695944 -0.076652996 0 26
-1.2171319 0.95240545 -0.078299388 0 26
-1.2308787 0.9389919 -0.078435019 0 26
-1.2631156 0.93924183 -0.07974726 0 26
-1.2994821 0.94169414 -0.08130604 0 26
-1.333667 0.94167632 -0.082714178 0 26
-8.3413 5.7372489 -0.51291424 0 26
-1.5119984 1.0128129 -0.092201397 0 26
-8.3818111 5.4664674 -0.50698411 0 26
-8.3861771 5.3235021 -0.50325066 0 26
-8.4010525 5.1891365 -0.50027639 0 26
-8.4264183 5.0627365 -0.49804214 0 26
-8.4328375 4.9265022 -0.49480361 0 26
-8.4545393 4.8007331 -0.49257603 0 26
-8.45397 4.6638913 -0.48916459 0 26
-8.4657803 4.5355396 -0.48658413 0 26
-1.3687992 0.71181309 -0.078164913 0 26
-8.8880205 4.4840498 -0.50436127 0 26
-9.2549057 4.527257 -0.52198213 0 26
-9.6258535 4.5629044 -0.53969848 0 26
-10.03918 4.6085229 -0.5596531 0 26
-10.467915 4.6503668 -0.58032209 0 26
-10.960765 4.7088137 -0.60438919 0 26
-11.447942 4.752234 -0.62798297 0 26
-12.023085 4.8185482 -0.65623283 0 26
-11.965411 4.6255069 -0.64993143 0 26
-11.985702 4.4647455 -0.64800251 0 26
-12.015167 4.3082433 -0.6466825 0 26
-12.010149 4.1405058 -0.64362347 0 26
-12.052053 3.9898407 -0.64319134 0 26
-12.050844 3.8256843 -0.64056784 0 26
-12.07683 3.6711006 -0.63950127 0 26
-12.088195 3.5127828 -0.63776761 0 26
-12.112227 3.3588269 -0.63680834 0 26
-12.111776 3.1988618 -0.63466859 0 26
-12.13215 3.0451705 -0.63372612 0 26
-12.136333 2.8880723 -0.63204175 0 26
-12.160089 2.7361932 -0.63147908 0 26
-12.196226 2.5871952 -0.63165581 0 26
-12.206341 2.4329 -0.63058263 0 26
-12.211055 2.2781031 -0.62933141 0 26
-12.246438 2.1292319 -0.629758 0 26
-12.258284 1.9763325 -0.62906992 0 26
-12.27837 1.8249723 -0.62890154 0 26
-12.300188 1.6739069 -0.62891722 0 26
-12.302988 1.5204602 -0.62805694 0 26
-12.323233 1.3693491 -0.62818342 0 26
-12.339814 1.2177914 -0.62821782 0 26
-12.358861 1.0664066 -0.62847239 0 26
-12.384995 0.91539872 -0.62918139 0 26
-12.383008 0.76229173 -0.62855673 0 26
-12.411592 0.61097002 -0.62957865 0 26
-12.43804 0.45905015 -0.63058627 0 26
-12.448325 0.30622029 -0.63086915 0 26
-12.461053 0.15326005 -0.6313709 0 26
-12.461645 3.3068096e-05 -0.6313532 0 26
-12.477894 -3.3111213e-05 -0.51708907 0 27
-12.504961 -0.15380009 -0.51824993 0 27
-12.499966 -0.30749059 -0.5181604 0 27
-12.523064 -0.46218809 -0.51931423 0 27
-12.537675 -0.61717659 -0.52019554 0 27
-12.568841 -0.77373153 -0.52184391 0 27
-12.594004 -0.93084693 -0.52332431 0 27
-12.604608 -1.0876114 -0.52428108 0 27
-42.222141 -72.786308 -3.4870465 0 27
-41.309349 -73.273964 -3.48581 0 27
-40.390915 -73.750099 -3.4845703 0 27
-39.478916 -74.237122 -3.484381 0 27
-38.552116 -74.695549 -3.4833844 0 27
-37.654209 -75.210724 -3.4855533 0 27
-36.727173 -75.669182 -3.4856069 0 27
-35.806782 -76.14222 -3.4868515 0 27
-34.894535 -76.635292 -3.4895182 0 27
-33.979439 -77.126221 -3.4925826 0 27
-33.054844 -77.599884 -3.4953618 0 27
-32.131889 -78.082291 -3.4990294 0 27
-31.21217 -78.579147 -3.5038309 0 27
-30.281864 -79.056778 -3.5082595 0 27
-29.351931 -79.543465 -3.5135748 0 27
-28.422583 -80.041695 -3.5198784 0 27
-27.485054 -80.528015 -3.5261359 0 27
-26.545891 -81.02179 -3.5331967 0 27
-24.301186 -77.373314 -3.3608091 0 27
-23.407103 -77.862862 -3.3693163 0 27
-22.509552 -78.359169 -3.3785601 0 27
-21.596254 -78.819321 -3.3866944 0 27
-20.680529 -79.289902 -3.3957307 0 27
-19.763103 -79.776558 -3.4059076 0 27
-18.844303 -80.284439 -3.4174395 0 27
-17.915382 -80.778999 -3.4288549 0 27
-16.975693 -81.255898 -3.4399772 0 27
-16.035433 -81.764969 -3.4529202 0 27
-15.081621 -82.243584 -3.4650388 0 27
-14.12322 -82.738976 -3.4783304 0 27
-13.163973 -83.280518 -3.4940276 0 27
-12.187233 -83.767616 -3.5079112 0 27
-10.668422 -80.241287 -3.3544929 0 27
-9.7302618 -80.775291 -3.3715603 0 27
-8.7803049 -81.295799 -3.3885236 0 27
-7.8136473 -81.748955 -3.4031498 0 27
-6.8446426 -82.280434 -3.4215124 0 27
-5.8632259 -82.793053 -3.4395709 0 27
-4.8717108 -83.319176 -3.4586782 0 27
-3.8685482 -83.842209 -3.4781523 0 27
-2.7260559 -80.59256 -3.3416989 0 27
-1.7450032 -81.088516 -3.3611195 0 27
-0.75284147 -81.645805 -3.3835795 0 27
0.25259092 -82.135391 -3.4037406 0 27
1.2712661 -82.698219 -3.4274533 0 27
2.3035345 -83.23806 -3.4507401 0 27
3.2054958 -80.169205 -3.3248994 0 27
4.2204561 -80.687317 -3.3482864 0 27
5.2534218 -81.266502 -3.3747468 0 27
6.2990003 -81.803024 -3.399986 0 27
7.3633418 -82.379532 -3.4274516 0 27
8.4435387 -82.949348 -3.4552181 0 27
9.1463118 -80.068596 -3.3396537 0 27
10.224554 -80.695488 -3.3707905 0 27
11.308097 -81.225372 -3.3984761 0 27
12.422084 -81.845352 -3.4305477 0 27
13.016105 -79.18383 -3.3254471 0 27
14.119209 -79.754845 -3.3564653 0 27
15.254951 -80.398323 -3.3911843 0 27
16.40872 -81.026276 -3.4259226 0 27
16.911091 -78.530655 -3.3289442 0 27
18.062634 -79.137154 -3.3638148 0 27
19.245966 -79.78656 -3.401221 0 27
19.706936 -77.504341 -3.3140118 0 27
20.888653 -78.117226 -3.3509481 0 27
22.110886 -78.792831 -3.3913355 0 27
22.540077 -76.68486 -3.3122849 0 27
23.758034 -77.30249 -3.3513277 0 27
25.023088 -77.990593 -3.3942423 0 27
25.441156 -76.065552 -3.3238261 0 27
26.717266 -76.7314 -3.3670228 0 27
27.131653 -74.941322 -3.3028629 0 27
28.425209 -75.597153 -3.3469186 0 27
29.794188 -76.373978 -3.3972743 0 27
30.206665 -74.705132 -3.3393102 0 27
31.584303 -75.429947 -3.3888135 0 27
31.997978 -73.855545 -3.335506 0 27
33.439369 -74.652504 -3.3898125 0 27
33.89632 -73.245132 -3.3445802 0 27
34.364952 -71.924126 -3.3033049 0 27
35.858387 -72.736923 -3.3606319 0 27
36.35862 -71.520615 -3.3248405 0 27
36.893116 -70.415146 -3.2942898 0 27
38.469704 -71.278366 -3.3565516 0 27
39.061279 -70.292633 -3.3324993 0 27
39.668774 -69.36319 -3.3113103 0 27
40.207619 -68.34156 -3.2858932 0 27
41.300133 -68.263924 -3.3063281 0 27
42.401596 -68.177444 -3.327141 0 27
43.595764 -68.212807 -3.354774 0 27
43.578053 -66.372238 -3.2903585 0 27
44.828899 -66.481049 -3.3228285 0 27
46.144032 -66.648598 -3.359309 0 27
46.145226 -64.92971 -3.3010218 0 27
47.571377 -65.222961 -3.345417 0 27
47.548061 -63.535172 -3.2885873 0 27
49.084724 -63.934441 -3.3402419 0 27
49.053558 -62.292938 -3.2857468 0 27
50.667404 -62.739632 -3.3419185 0 27
50.628803 -61.138367 -3.2895374 0 27
52.352005 -61.659943 -3.351984 0 27
52.356483 -60.150276 -3.3046637 0 27
52.350441 -58.670773 -3.2584994 0 27
54.159561 -59.216278 -3.325532 0 27
54.161957 -57.776119 -3.2818079 0 27
56.115276 -58.403679 -3.3563955 0 27
56.108597 -56.977596 -3.3138394 0 27
56.097546 -55.582516 -3.2725728 0 27
58.200977 -56.265457 -3.354666 0 27
58.19059 -54.887398 -3.3149147 0 27
58.209526 -53.56818 -3.2782216 0 27
58.181225 -52.235611 -3.2402093 0 27
60.42379 -52.921761 -3.3286088 0 27
60.461479 -51.654991 -3.2954452 0 27
60.446819 -50.370026 -3.2606409 0 27
60.450432 -49.126331 -3.2280064 0 27
62.88364 -49.832508 -3.3249652 0 27
62.873348 -48.577869 -3.292588 0 27
62.893055 -47.36969 -3.2628696 0 27
62.860531 -46.144863 -3.2315006 0 27
65.481354 -46.840759 -3.3363686 0 27
65.539467 -45.674675 -3.3104632 0 27
65.528435 -44.480045 -3.2820311 0 27
65.504379 -43.29686 -3.2539146 0 27
65.523346 -42.161015 -3.2288597 0 27
68.399094 -42.831463 -3.3443646 0 27
68.407982 -41.674953 -3.3194919 0 27
68.398445 -40.524506 -3.2945995 0 27
68.37822 -39.384781 -3.2700508 0 27
68.359306 -38.262314 -3.2464006 0 27
68.381737 -37.178127 -3.2255111 0 27
68.413025 -36.112476 -3.2057991 0 27
71.501099 -36.625607 -3.329149 0 27
71.493034 -35.518639 -3.308188 0 27
71.500145 -34.432621 -3.288676 0 27
71.504456 -33.35791 -3.2697608 0 27
71.542427 -32.310558 -3.2530832 0 27
71.518074 -31.246611 -3.2342603 0 27
71.513016 -30.202782 -3.2169931 0 27
71.525734 -29.177116 -3.201184 0 27
74.934258 -29.498146 -3.3372486 0 27
74.945602 -28.443365 -3.3219264 0 27
74.974876 -27.404655 -3.308037 0 27
74.925484 -26.346867 -3.2913148 0 27
74.941658 -25.321547 -3.2780998 0 27
74.94178 -24.299112 -3.2647884 0 27
74.939087 -23.283918 -3.2519524 0 27
74.949867 -22.280525 -3.2402864 0 27
74.928391 -21.275017 -3.2278037 0 27
74.961418 -20.291786 -3.2182343 0 27
74.959801 -19.305347 -3.207731 0 27
74.955582 -18.324539 -3.1976662 0 27
74.93924 -17.346909 -3.1876283 0 27
78.723816 -17.205961 -3.3393576 0 27
78.718636 -16.193348 -3.33044 0 27
78.733925 -15.189921 -3.3229332 0 27
78.72448 -14.18641 -3.3149216 0 27
78.737274 -13.191296 -3.3083801 0 27
78.724976 -12.196071 -3.3013124 0 27
78.732079 -11.207694 -3.2955818 0 27
78.725014 -10.220757 -3.2897768 0 27
78.727196 -9.2382259 -3.2848725 0 27
78.729485 -8.2584829 -3.2804828 0 27
78.722885 -7.2803864 -3.2762299 0 27
78.733261 -6.3060341 -3.2731874 0 27
78.734055 -5.3326941 -3.2702467 0 27
78.719345 -4.3600965 -3.2671621 0 27
78.735596 -3.3905175 -3.2658594 0 27
78.741051 -2.4212332 -3.2646036 0 27
78.7332 -1.4523023 -3.2632914 0 27
78.733246 -0.48405221 -3.2627997 0 27
78.726562 0.48401114 -3.2625229 0 27
78.732414 1.4522878 -3.2632587 0 27
78.734276 2.4210248 -3.264323 0 27
78.7286 3.3902164 -3.2655692 0 27
78.724754 4.3603959 -3.2673864 0 27
78.731407 5.3325148 -3.2701368 0 27
78.718048 6.3048153 -3.2725549 0 27
78.733932 7.2814083 -3.2766898 0 27
78.740334 8.2596207 -3.2809348 0 27
78.728111 9.2383327 -3.2849107 0 27
78.730988 10.221533 -3.2900262 0 27
78.733719 11.207928 -3.2956505 0 27
78.723732 12.195878 -3.3012602 0 27
78.730972 13.19024 -3.3081152 0 27
78.736732 14.188619 -3.3154376 0 27
78.728615 15.188896 -3.3227091 0 27
78.734131 16.196537 -3.3310955 0 27
78.729912 17.207294 -3.3396163 0 27
74.94474 17.348183 -3.1878624 0 27
74.953842 18.324114 -3.197592 0 27
74.967995 19.307457 -3.2080815 0 27
74.979103 20.296574 -3.2189937 0 27
74.938416 21.277863 -3.2282355 0 27
74.94828 22.280052 -3.2402177 0 27
74.954666 23.288759 -3.2526286 0 27
74.956245 24.303801 -3.2654185 0 27
13.406222 4.5297408 -0.58641529 0 27
12.995011 4.5695777 -0.5708428 0 27
12.587557 4.6009769 -0.55538744 0 27
12.253245 4.650353 -0.54311895 0 27
11.926314 4.6948376 -0.53114659 0 27
11.582738 4.7248855 -0.51839346 0 27
11.288833 4.7677221 -0.50782502 0 27
10.995901 4.8041654 -0.4972674 0 27
11.007385 4.9712424 -0.50051332 0 27
11.029191 5.1452842 -0.50434357 0 27
11.045304 5.3191333 -0.50803298 0 27
11.07725 5.5033169 -0.5125761 0 27
11.085429 5.6783819 -0.51614654 0 27
11.124711 5.8722863 -0.52129823 0 27
11.137117 6.0550842 -0.52532881 0 27
11.149152 6.2404428 -0.52947599 0 27
11.175024 6.4366384 -0.53442305 0 27
11.187455 6.6283102 -0.53887457 0 27
11.227052 6.8396525 -0.54479176 0 27
11.249247 7.04427 -0.55003041 0 27
11.277116 7.2562633 -0.55571377 0 27
11.276732 7.4536557 -0.56016904 0 27
11.312631 7.6789007 -0.56659991 0 27
11.348739 7.9089737 -0.57323599 0 27
11.347792 8.1174135 -0.57818621 0 27
11.386955 8.3589735 -0.58537453 0 27
11.415941 8.5982409 -0.59225506 0 27
11.436914 8.8365097 -0.59893495 0 27
11.469189 9.0888252 -0.60643202 0 27
11.505296 9.3500242 -0.61437386 0 27
11.521685 9.6009607 -0.62150621 0 27
11.559773 9.8760405 -0.63006401 0 27
11.587567 10.14889 -0.63833261 0 27
11.607993 10.421759 -0.64646852 0 27
11.646476 10.717842 -0.65590173 0 27
11.541056 10.885927 -0.6574536 0 27
11.294738 10.919123 -0.65102124 0 27
11.03967 10.938315 -0.64402324 0 27
10.795629 10.96283 -0.63760251 0 27
10.559673 10.990301 -0.63160056 0 27
10.326872 11.015971 -0.62573087 0 27
10.094733 11.037248 -0.61984175 0 27
9.8650923 11.056117 -0.61404258 0 27
9.6471033 11.083173 -0.60891086 0 27
9.4358578 11.113507 -0.60415721 0 27
9.2185812 11.132181 -0.59896481 0 27
9.0114841 11.158598 -0.59437913 0 27
8.8016462 11.177179 -0.58955932 0 27
8.6061735 11.209819 -0.58565474 0 27
8.3998833 11.22418 -0.5809648 0 27
8.2034864 11.247429 -0.57690334 0 27
8.0097275 11.270273 -0.57297987 0 27
8.0377855 11.609457 -0.58515489 0 27
8.0731783 11.972486 -0.59840387 0 27
8.1259489 12.376355 -0.61354935 0 27
8.1655207 12.776313 -0.62835187 0 27
8.2093573 13.19981 -0.64416653 0 27
8.2759371 13.679084 -0.66253936 0 27
0.16527201 1.0054368 -0.042224869 0 27
0.14995347 0.98799807 -0.041411936 0 27
0.13449216 0.96604902 -0.040419567 0 27
0.12456527 0.98310947 -0.041066188 0 27
0.109123 0.95528394 -0.039844807 0 27
0.098093092 0.96366686 -0.040141109 0 27
0.084796876 0.9486897 -0.039470825 0 27
0.17143291 2.2263422 -0.092533655 0 27
0.14320518 2.215277 -0.091993608 0 27
0.11949073 2.2844415 -0.094797611 0 27
-0.032145411 0.95034039 -0.039405022 0 27
-0.043855265 0.95046574 -0.039429598 0 27
-0.055458557 0.94848841 -0.039372884 0 27
-0.067528419 0.95355088 -0.039614506 0 27
-0.077930018 0.93680787 -0.038955797 0 27
-0.09018942 0.94359142 -0.039281029 0 27
-0.10181337 0.94267786 -0.039292142 0 27
-0.11416368 0.94772428 -0.039558008 0 27
-0.12741335 0.95832455 -0.04006283 0 27
-0.13784644 0.94747245 -0.03967702 0 27
-0.15244101 0.96440232 -0.040461425 0 27
-0.16529015 0.96832991 -0.0407084 0 27
-0.17747109 0.96779108 -0.040774409 0 27
-1.0925623 2.2510116 -0.10369006 0 27
-1.1239001 2.244884 -0.10403653 0 27
-1.1688139 2.2646019 -0.10560842 0 27
-1.2106749 2.2765827 -0.1068533 0 27
-1.2429594 2.2695298 -0.10723153 0 27
-1.2863719 2.281749 -0.10854802 0 27
-1.3149873 2.2668929 -0.10860231 0 27
-1.3132906 2.2011595 -0.10621878 0 27
-1.3121186 2.1389773 -0.10398884 0 27
-1.304441 2.0689485 -0.10135645 0 27
-1.3169745 2.032984 -0.10038032 0 27
-1.3111016 1.9703944 -0.098078534 0 27
-1.318031 1.9289545 -0.096815228 0 27
-1.3124229 1.8709393 -0.094706237 0 27
-1.3138922 1.8248886 -0.093185946 0 27
-1.3129957 1.7771466 -0.091565564 0 27
-1.3139133 1.7333829 -0.090136319 0 27
-1.3194937 1.6969907 -0.0890809 0 27
-1.3177603 1.6524256 -0.087585486 0 27
-1.3348141 1.632229 -0.087378368 0 27
-1.3457609 1.6049347 -0.086796522 0 27
-1.3579041 1.5795554 -0.086320475 0 27
-1.05238 0.98049098 -0.059606038 0 27
-1.0622284 0.96554327 -0.059486888 0 27
-1.0945663 0.97062945 -0.060624886 0 27
-1.1301646 0.97763956 -0.061926052 0 27
-1.1491002 0.96957642 -0.062305622 0 27
-1.1653863 0.95903772 -0.062544532 0 27
-1.1889565 0.95415902 -0.063175045 0 27
-1.2105012 0.94721699 -0.063696124 0 27
-1.2315419 0.93949783 -0.064190537 0 27
-1.2616997 0.93818897 -0.065156199 0 27
-1.3076762 0.94763213 -0.066923678 0 27
-1.3448322 0.94955987 -0.068222515 0 27
-8.343153 5.738523 -0.41963169 0 27
-1.5060359 1.0088187 -0.075118788 0 27
-8.3895054 5.4714851 -0.4150686 0 27
-8.4036846 5.3346157 -0.41249356 0 27
-8.3988266 5.1877613 -0.40909296 0 27
-8.4236898 5.0610967 -0.40724191 0 27
-8.4239197 4.9212923 -0.4042969 0 27
-8.4467764 4.7963247 -0.40253288 0 27
-8.4609537 4.6677437 -0.40044299 0 27
-8.4634523 4.5342922 -0.39789236 0 27
-8.5352678 4.4385729 -0.39867255 0 27
-8.9095316 4.4949021 -0.41354105 0 27
-9.2449369 4.5223804 -0.42649567 0 27
-9.6300583 4.5648975 -0.44163951 0 27
-10.050516 4.6137266 -0.45828551 0 27
-10.490491 4.6603961 -0.47569853 0 27
-10.953579 4.7057266 -0.49403638 0 27
-11.4402 4.7490206 -0.51331168 0 27
-12.01664 4.8159652 -0.53647834 0 27
-11.954004 4.6210971 -0.53110504 0 27
-11.989491 4.4661574 -0.53020161 0 27
-11.989475 4.2990313 -0.52782327 0 27
-12.017729 4.1431189 -0.52678448 0 27
-12.046844 3.9881165 -0.5258714 0 27
-12.053265 3.8264527 -0.5240581 0 27
-12.06284 3.6668479 -0.52247447 0 27
-12.083705 3.5114782 -0.52146858 0 27
-12.116099 3.3599005 -0.52104425 0 27
-12.114641 3.1996183 -0.51925033 0 27
-12.145279 3.0484657 -0.51891762 0 27
-12.150406 2.8914216 -0.51757842 0 27
-12.174915 2.7395291 -0.51714844 0 27
-12.185741 2.5849712 -0.51621908 0 27
-12.216546 2.4349339 -0.51621664 0 27
-12.224733 2.2806551 -0.5153386 0 27
-12.238461 2.1278448 -0.5147754 0 27
-12.260398 1.9766734 -0.51463687 0 27
-12.278017 1.8249198 -0.51439559 0 27
-12.311163 1.6754005 -0.51488221 0 27
-12.325137 1.5231977 -0.51464444 0 27
-12.312055 1.368107 -0.51335692 0 27
-12.355207 1.2193106 -0.51449215 0 27
-12.354982 1.066072 -0.51389807 0 27
-12.373369 0.9145394 -0.51415616 0 27
-12.378429 0.76200986 -0.51393825 0 27
-12.39998 0.61039847 -0.5144825 0 27
-12.427138 0.45864779 -0.51533633 0 27
-12.433913 0.30586576 -0.51542234 0 27
-12.464264 0.15329954 -0.5165633 0 27
-12.452427 3.3043634e-05 -0.51603371 0 27
-12.484864 -3.3129709e-05 -0.4023141 0 28
-12.494203 -0.15366776 -0.40264547 0 28
-12.508606 -0.30770317 -0.4032011 0 28
-12.529073 -0.46240988 -0.40401357 0 28
-12.542986 -0.61743802 -0.40467644 0 28
-12.564948 -0.77349186 -0.4056612 0 28
-12.600188 -0.93130404 -0.40713787 0 28
-12.605926 -1.087725 -0.40772462 0 28
-45.151962 -105.99921 -3.7127101 0 28
-43.887466 -106.64899 -3.7162864 0 28
-42.615208 -107.28722 -3.7199848 0 28
-41.353073 -107.96035 -3.7254117 0 28
-40.068104 -108.5842 -3.7296553 0 28
-38.790096 -109.23796 -3.7354448 0 28
-37.507774 -109.89343 -3.7418048 0 28
-36.2248 -110.56319 -3.7491593 0 28
-34.922489 -111.19083 -3.7555966 0 28
-33.622726 -111.84476 -3.7634354 0 28
-32.326588 -112.53375 -3.7729583 0 28
-31.008612 -113.17138 -3.7812665 0 28
-29.692558 -113.84235 -3.7911992 0 28
-28.368282 -114.51257 -3.8016148 0 28
-27.037073 -115.18899 -3.8127453 0 28
-25.698233 -115.87125 -3.8245792 0 28
-24.352461 -116.56555 -3.8373222 0 28
-22.992128 -117.23729 -3.8498378 0 28
-21.625334 -117.92797 -3.8634939 0 28
-20.244135 -118.59753 -3.876981 0 28
-17.597111 -111.32631 -3.6319351 0 28
-16.289869 -111.96664 -3.6460149 0 28
-14.972466 -112.61365 -3.6608119 0 28
-13.650051 -113.31524 -3.6778846 0 28
-12.314341 -114.01701 -3.6954682 0 28
-10.958679 -114.65331 -3.7114434 0 28
-9.5968189 -115.36474 -3.7303708 0 28
-8.2203236 -116.077 -3.7498503 0 28
-6.8280973 -116.77857 -3.7695169 0 28
-5.4213595 -117.49596 -3.7902353 0 28
-4.0001683 -118.26016 -3.8130121 0 28
-2.4000602 -111.52834 -3.5947375 0 28
-1.035233 -112.27122 -3.6179981 0 28
0.34734076 -112.94535 -3.6395848 0 28
1.747489 -113.67741 -3.6635902 0 28
3.1662261 -114.41136 -3.68822 0 28
4.6035452 -115.13431 -3.7130694 0 28
6.0613084 -115.881 -3.7392709 0 28
7.543087 -116.68591 -3.7679522 0 28
9.0405865 -117.40709 -3.794543 0 28
9.9489765 -111.30706 -3.6010747 0 28
11.407812 -112.07037 -3.6300337 0 28
12.887795 -112.82227 -3.6592445 0 28
14.401599 -113.66207 -3.691947 0 28
15.92545 -114.39154 -3.7217209 0 28
17.488565 -115.22686 -3.7556105 0 28
18.026962 -109.66751 -3.5813677 0 28
19.550388 -110.43382 -3.61397 0 28
21.118984 -111.3036 -3.6506565 0 28
22.711439 -112.14911 -3.6872692 0 28
24.330013 -112.98218 -3.7242141 0 28
24.627974 -107.90163 -3.5664575 0 28
26.242519 -108.79165 -3.6062682 0 28
27.875656 -109.63065 -3.6451666 0 28
29.542517 -110.48006 -3.685209 0 28
31.267405 -111.42237 -3.7291839 0 28
31.396042 -106.81424 -3.5876045 0 28
33.090591 -107.66822 -3.6296797 0 28
34.845856 -108.60565 -3.6754491 0 28
34.945343 -104.48176 -3.5501614 0 28
36.687473 -105.36562 -3.5952508 0 28
38.514202 -106.38148 -3.6457977 0 28
40.344234 -107.29593 -3.6938591 0 28
40.395584 -103.54944 -3.5817091 0 28
42.281921 -104.56886 -3.6346788 0 28
44.192242 -105.54035 -3.6870565 0 28
44.227852 -102.08371 -3.5850267 0 28
46.201584 -103.14381 -3.6419318 0 28
46.292336 -100.03117 -3.5518575 0 28
48.296768 -101.08272 -3.6100097 0 28
50.383453 -102.20029 -3.6717703 0 28
50.500191 -99.338341 -3.5909867 0 28
52.664219 -100.51627 -3.6567011 0 28
52.84642 -97.916176 -3.5854807 0 28
55.086899 -99.1315 -3.654511 0 28
55.344723 -96.773514 -3.5924001 0 28
56.094738 -95.345169 -3.5647132 0 28
58.210819 -96.215172 -3.623728 0 28
58.193199 -93.568741 -3.5507381 0 28
60.457535 -94.59584 -3.6176519 0 28
60.445099 -92.061867 -3.5489008 0 28
62.863056 -93.225616 -3.6232867 0 28
62.857204 -90.788437 -3.5583351 0 28
65.487572 -92.145813 -3.6428216 0 28
65.50074 -89.805099 -3.581856 0 28
65.491066 -87.511162 -3.5222161 0 28
68.401192 -89.094757 -3.6195333 0 28
68.362137 -86.812843 -3.5607102 0 28
68.399689 -84.696884 -3.5081546 0 28
71.483727 -86.322372 -3.6116173 0 28
71.522163 -84.238457 -3.560956 0 28
71.532158 -82.180443 -3.5108759 0 28
74.930534 -83.97699 -3.6267157 0 28
74.947586 -81.945213 -3.5784998 0 28
74.933487 -79.933708 -3.5306292 0 28
74.955719 -78.012444 -3.4862149 0 28
78.720116 -79.939316 -3.6153066 0 28
78.702675 -77.98011 -3.5701983 0 28
78.706757 -76.089302 -3.5276737 0 28
78.698975 -74.231621 -3.4861495 0 28
82.930122 -76.317673 -3.6317332 0 28
82.87429 -74.405266 -3.5889502 0 28
82.870415 -72.581474 -3.5498633 0 28
82.92868 -70.849747 -3.5147746 0 28
82.886055 -69.068527 -3.4767091 0 28
82.894775 -67.366211 -3.4420683 0 28
87.531502 -69.364853 -3.5989115 0 28
87.513412 -67.61554 -3.5637136 0 28
87.553452 -65.943367 -3.5320568 0 28
87.498688 -64.231323 -3.4977205 0 28
87.504044 -62.59425 -3.4669046 0 28
87.57618 -61.032131 -3.4397686 0 28
92.744911 -62.954319 -3.6121049 0 28
92.709625 -61.278889 -3.5811131 0 28
92.73584 -59.670906 -3.5535145 0 28
92.756775 -58.084225 -3.5266817 0 28
92.763435 -56.512581 -3.5002496 0 28
92.752441 -54.95369 -3.4740744 0 28
92.750946 -53.423088 -3.4491527 0 28
92.728554 -51.902351 -3.4243276 0 28
98.580879 -53.596951 -3.615834 0 28
98.631744 -52.063721 -3.5939462 0 28
98.560333 -50.486382 -3.5684533 0 28
98.577278 -48.97443 -3.5469952 0 28
98.57003 -47.468777 -3.5254653 0 28
98.572708 -45.985661 -3.5050719 0 28
98.613976 -44.536823 -3.4868023 0 28
98.602684 -43.080017 -3.4674106 0 28
98.582932 -41.635483 -3.4484515 0 28
98.606422 -40.223995 -3.4317122 0 28
98.583458 -38.807743 -3.4140475 0 28
98.597694 -37.419811 -3.3983488 0 28
105.25865 -38.473919 -3.6113517 0 28
105.22216 -37.000416 -3.594218 0 28
105.20663 -35.547577 -3.578486 0 28
105.22467 -34.118031 -3.5645604 0 28
105.22893 -32.69511 -3.5508168 0 28
105.23548 -31.2836 -3.5377901 0 28
105.22957 -29.878674 -3.5249739 0 28
105.24464 -28.489344 -3.5134778 0 28
105.25561 -27.107811 -3.5024514 0 28
105.24883 -25.730392 -3.4914339 0 28
105.23381 -24.359486 -3.4807358 0 28
105.24672 -23.002836 -3.4715447 0 28
105.24191 -21.649496 -3.462343 0 28
105.25507 -20.306574 -3.4543004 0 28
105.2366 -18.96398 -3.4457805 0 28
105.23924 -17.631317 -3.4385085 0 28
105.23128 -16.302425 -3.4314389 0 28
105.24734 -14.982203 -3.4256964 0 28
105.2366 -13.662719 -3.4196198 0 28
105.2472 -12.350209 -3.4147713 0 28
105.25638 -11.041074 -3.4104066 0 28
105.24648 -9.7333202 -3.4059503 0 28
105.25852 -8.4305382 -3.4027281 0 28
105.25673 -7.1290874 -3.3995793 0 28
105.24277 -5.8291721 -3.3965564 0 28
105.24163 -4.5319223 -3.3944647 0 28
105.24549 -3.2362266 -3.3930492 0 28
105.24046 -1.9412516 -3.391861 0 28
105.24196 -0.64702791 -3.3913965 0 28
105.26218 0.64715219 -3.3920479 0 28
105.23859 1.9412172 -3.3918006 0 28
105.24094 3.2360866 -3.3929024 0 28
105.25284 4.5324049 -3.3948262 0 28
105.24298 5.8291841 -3.3965633 0 28
105.26234 7.129468 -3.3997607 0 28
105.24369 8.4293499 -3.4022484 0 28
105.25033 9.733676 -3.4060748 0 28
105.2504 11.040447 -3.410213 0 28
105.26484 12.35228 -3.4153438 0 28
105.25555 13.665179 -3.4202356 0 28
105.26263 14.984379 -3.426194 0 28
105.24535 16.304605 -3.4318979 0 28
105.26698 17.635965 -3.4394147 0 28
105.25261 18.966866 -3.4463048 0 28
105.27017 20.309486 -3.4547958 0 28
105.2514 21.651451 -3.4626555 0 28
105.26159 23.006086 -3.4720352 0 28
105.24645 24.362411 -3.481154 0 28
105.2421 25.728745 -3.4912105 0 28
105.2623 27.109533 -3.5026741 0 28
105.27201 28.496754 -3.5143917 0 28
105.23601 29.880501 -3.5251894 0 28
105.23913 31.284683 -3.5379126 0 28
105.23841 32.698055 -3.551137 0 28
105.24642 34.125084 -3.5652971 0 28
13.399611 4.5275068 -0.45577279 0 28
13.018647 4.577889 -0.44469583 0 28
12.618772 4.6123862 -0.43294132 0 28
12.254462 4.650815 -0.42237231 0 28
11.924345 4.6940622 -0.41295245 0 28
11.569722 4.7195759 -0.40265083 0 28
11.278017 4.763154 -0.39450741 0 28
10.991488 4.8022375 -0.38652095 0 28
11.028844 4.9809337 -0.38995892 0 28
11.045074 5.1526942 -0.39274335 0 28
11.061313 5.3268423 -0.39561999 0 28
11.080418 5.5048909 -0.39869419 0 28
11.090399 5.6809273 -0.40153649 0 28
11.126687 5.8733287 -0.40543452 0 28
11.124774 6.0483737 -0.40804398 0 28
11.162629 6.2479858 -0.41221929 0 28
11.161877 6.4290652 -0.4150795 0 28
11.201427 6.6365886 -0.41955331 0 28
11.227676 6.8400335 -0.42365474 0 28
11.246442 7.0425138 -0.42759812 0 28
11.265821 7.2489963 -0.43169135 0 28
11.286779 7.4602966 -0.43597665 0 28
11.313011 7.6791587 -0.440604 0 28
11.350002 7.9098544 -0.44579908 0 28
11.359671 8.1259108 -0.45006943 0 28
11.380796 8.3544521 -0.4549422 0 28
11.415803 8.5981359 -0.46053311 0 28
11.442405 8.8407516 -0.46595663 0 28
11.483874 9.1004629 -0.47216654 0 28
11.495778 9.342289 -0.47734317 0 28
11.534184 9.6113768 -0.48380882 0 28
11.55572 9.8725777 -0.48976725 0 28
11.580089 10.142341 -0.49604833 0 28
11.621974 10.43431 -0.50330067 0 28
11.653134 10.723969 -0.51032209 0 28
11.547061 10.891591 -0.51150328 0 28
11.297006 10.921314 -0.50633705 0 28
11.048848 10.94741 -0.50121015 0 28
10.796361 10.963573 -0.49583462 0 28
10.56805 10.99902 -0.49152347 0 28
10.326185 11.015239 -0.48653722 0 28
10.099466 11.042423 -0.48221618 0 28
9.8680525 11.059434 -0.47762397 0 28
9.6502991 11.086843 -0.47364715 0 28
9.4334106 11.110625 -0.46967202 0 28
9.2294798 11.145343 -0.46630687 0 28
9.0062561 11.152124 -0.46192226 0 28
8.8079443 11.185177 -0.45877054 0 28
8.6064205 11.210141 -0.45541936 0 28
8.3909769 11.21228 -0.45128042 0 28
8.2010918 11.244145 -0.44847018 0 28
8.0119476 11.273396 -0.44567379 0 28
8.0291052 11.596918 -0.45452619 0 28
8.0755529 11.976007 -0.46545693 0 28
8.1137943 12.357842 -0.47638354 0 28
8.1665621 12.777942 -0.48866996 0 28
8.2067423 13.195605 -0.50074565 0 28
8.2581968 13.649761 -0.51408756 0 28
0.16746664 1.0187879 -0.033270147 0 28
0.14597061 0.96175617 -0.031346697 0 28
0.13475408 0.96793032 -0.031491544 0 28
0.12398627 0.97853971 -0.031784717 0 28
0.11090671 0.97089893 -0.031489853 0 28
0.098110095 0.96383387 -0.031219216 0 28
0.084067345 0.94052786 -0.030428536 0 28
0.073899671 0.95971042 -0.031017398 0 28
0.14407757 2.2287722 -0.071970187 0 28
0.119135 2.2776408 -0.073495366 0 28
0.09128578 2.2830503 -0.073628135 0 28
-0.11792067 2.5556693 -0.082441881 0 28
-0.132973 2.2741909 -0.073409028 0 28
-0.067111455 0.94766301 -0.030614112 0 28
-0.079159051 0.95158231 -0.030769842 0 28
-0.090925872 0.95129645 -0.030794425 0 28
-0.10209681 0.94530219 -0.030638708 0 28
-0.11255733 0.93438917 -0.030327566 0 28
-0.12816313 0.96396405 -0.031336263 0 28
-0.13827042 0.95038664 -0.030947825 0 28
-0.15429634 0.9761399 -0.031845815 0 28
-0.16625912 0.97400659 -0.031840507 0 28
-0.17732343 0.96698588 -0.03167988 0 28
-1.0920501 2.2499566 -0.080591798 0 28
-1.1224697 2.242027 -0.080796055 0 28
-1.1643436 2.2559407 -0.081807226 0 28
-1.2021377 2.260529 -0.082503423 0 28
-1.2488419 2.2802706 -0.083778076 0 28
-1.2829914 2.2757528 -0.08418534 0 28
-1.3075967 2.2541523 -0.083974734 0 28
-1.3176014 2.2083848 -0.082867056 0 28
-1.3095493 2.1347888 -0.080703586 0 28
-1.3189464 2.0919552 -0.079691403 0 28
-1.3121144 2.0254815 -0.077767886 0 28
-1.3131458 1.9734665 -0.076384977 0 28
-1.3125986 1.9210041 -0.074973419 0 28
-1.3096752 1.8670223 -0.073489577 0 28
-1.3111392 1.8210648 -0.072309747 0 28
-1.3169228 1.782462 -0.07141453 0 28
-1.3122576 1.7311985 -0.070001855 0 28
-1.3059736 1.6796027 -0.068559721 0 28
-1.3190454 1.654037 -0.068173073 0 28
-1.3468766 1.6469792 -0.068559609 0 28
-1.3465763 1.6059071 -0.067534044 0 28
-1.3675913 1.5908238 -0.067601822 0 28
-1.0527251 0.98081243 -0.046364971 0 28
-1.0735563 0.97584003 -0.046750415 0 28
-1.1059787 0.98074961 -0.047633555 0 28
-1.1231338 0.97155762 -0.047854256 0 28
-1.1396275 0.96158367 -0.048049584 0 28
-1.1653519 0.95900929 -0.048633315 0 28
-1.1894335 0.9545418 -0.049144749 0 28
-1.2133964 0.94948244 -0.049648698 0 28
-1.2384081 0.94473583 -0.050192978 0 28
-1.2591195 0.93627036 -0.050561979 0 28
-1.2959784 0.93915516 -0.051574469 0 28
-1.3292152 0.93853295 -0.052433915 0 28
-8.3694324 5.7565985 -0.32733423 0 28
-1.510621 1.0118901 -0.058590353 0 28
-8.3840466 5.4679251 -0.32254818 0 28
-8.4011889 5.3330312 -0.32066053 0 28
-8.4095793 5.1944036 -0.31851879 0 28
-8.4269352 5.0630469 -0.31679416 0 28
-8.4347057 4.9275942 -0.31478465 0 28
-8.4373322 4.7909622 -0.3126604 0 28
-8.4664612 4.6707821 -0.31158793 0 28
-8.492465 4.5498357 -0.3104625 0 28
-8.5455437 4.4439168 -0.3103818 0 28
-8.9103231 4.4953012 -0.32159892 0 28
-9.2396021 4.5197711 -0.33145255 0 28
-9.6298256 4.5647874 -0.34341151 0 28
-10.038959 4.6084213 -0.35595393 0 28
-10.470408 4.6514745 -0.369196 0 28
-10.945578 4.7022891 -0.38388306 0 28
-11.444123 4.750649 -0.39928907 0 28
-12.033096 4.8225608 -0.41773793 0 28
-11.972286 4.6281648 -0.41361994 0 28
-11.98133 4.4631171 -0.41200519 0 28
-12.005667 4.3048368 -0.41099074 0 28
-12.017626 4.1430831 -0.40962514 0 28
-12.040389 3.9859796 -0.40869951 0 28
-12.045593 3.8240173 -0.40724927 0 28
-12.065082 3.6675293 -0.4063527 0 28
-12.093779 3.5144055 -0.40583307 0 28
-12.114306 3.3594034 -0.40510508 0 28
-12.142783 3.207051 -0.40470803 0 28
-12.136284 3.0462081 -0.40321252 0 28
-12.164421 2.8947566 -0.40293428 0 28
-12.180493 2.7407842 -0.40231988 0 28
-12.182611 2.584307 -0.40130985 0 28
-12.21565 2.4347553 -0.40138164 0 28
-12.234796 2.2825325 -0.4010582 0 28
-12.242716 2.1285846 -0.40042955 0 28
-12.273213 1.9787395 -0.40060094 0 28
-12.277886 1.8249004 -0.3999908 0 28
-12.286597 1.6720575 -0.39957455 0 28
-12.310737 1.5214179 -0.39972094 0 28
-12.322077 1.3692206 -0.39951229 0 28
-12.35367 1.2191589 -0.40002033 0 28
-12.352021 1.0658165 -0.39951235 0 28
-12.364913 0.91391444 -0.39953566 0 28
-12.401555 0.76343346 -0.40038601 0 28
-12.420061 0.61138695 -0.40071049 0 28
-12.435128 0.45894268 -0.40098423 0 28
-12.434167 0.30587199 -0.40080163 0 28
-12.467579 0.15334031 -0.40178749 0 28
-12.474621 3.3102526e-05 -0.40198401 0 28
-12.477591 -3.3110406e-05 -0.28715113 0 29
-12.511852 -0.15388484 -0.28796139 0 29
-12.51848 -0.30794606 -0.28817928 0 29
-12.528307 -0.4623816 -0.28851455 0 29
-12.558124 -0.6181832 -0.28935441 0 29
-12.564655 -0.77347386 -0.28970215 0 29
-12.578892 -0.92973 -0.29027206 0 29
-12.611925 -1.0882428 -0.2913211 0 29
92.740623 -153.28859 -4.1230655 0 29
98.608383 -154.28917 -4.2139421 0 29
98.572922 -150.13304 -4.1332221 0 29
98.555489 -146.15732 -4.0568261 0 29
105.17023 -151.90367 -4.2518992 0 29
105.17567 -147.98987 -4.1782327 0 29
105.19798 -144.23218 -4.1083522 0 29
105.1765 -140.54005 -4.0397177 0 29
112.84257 -146.98108 -4.2644224 0 29
112.77892 -143.21754 -4.1951475 0 29
112.84937 -139.73734 -4.1335397 0 29
112.76501 -136.17287 -4.068809 0 29
112.82391 -132.88347 -4.0116725 0 29
121.60505 -139.7072 -4.2624974 0 29
121.58299 -136.26186 -4.2026753 0 29
121.58689 -132.93909 -4.1459918 0 29
121.5728 -129.68521 -4.0908256 0 29
121.59741 -126.55621 -4.0389838 0 29
121.59702 -123.48029 -3.9882345 0 29
131.82025 -130.61002 -4.2705455 0 29
131.83234 -127.44814 -4.2198467 0 29
131.8347 -124.3511 -4.1706629 0 29
131.8833 -121.36756 -4.1246758 0 29
