# .PCD v0.7 - Point Cloud Data file format
VERSION 0.7
FIELDS x y z intensity ring
SIZE 4 4 4 4 2
TYPE F F F F U
COUNT 1 1 1 1 1
WIDTH 1251
HEIGHT 1
VIEWPOINT 0 0 0 1 0 0 0
POINTS 1251
DATA ascii
0.67989737 -1.2976695 0.26578581 0 51
0.69998425 -1.2969617 0.26738355 0 51
0.70691454 -1.2721266 0.26403561 0 51
0.73282647 -1.2813903 0.26780841 0 51
0.74013299 -1.2580165 0.26480541 0 51
0.75243765 -1.2436849 0.26371631 0 51
0.77106631 -1.239796 0.26488218 0 51
0.78974712 -1.2356904 0.26605964 0 51
0.80240661 -1.2221181 0.26524174 0 51
0.81733 -1.2120966 0.26522794 0 51
0.8420608 -1.216239 0.26837981 0 51
0.85285592 -1.2000308 0.26709718 0 51
0.87362397 -1.1977863 0.26896828 0 51
0.88469249 -1.1821531 0.26788038 0 51
0.89061332 -1.1600527 0.26533389 0 51
0.91871184 -1.1666689 0.26941073 0 51
0.93286031 -1.1551275 0.2693741 0 51
0.94173414 -1.13722 0.26787826 0 51
0.96089035 -1.131732 0.26934841 0 51
0.97584486 -1.1211092 0.26965564 0 51
0.99360365 -1.1135626 0.27075872 0 51
1.0121754 -1.1066792 0.27209073 0 51
1.0313563 -1.1001774 0.27358955 0 51
1.034475 -1.0766612 0.27088439 0 51
1.0552863 -1.0716304 0.27286279 0 51
1.0834895 -1.0735421 0.27672103 0 51
0.74922073 -0.72430474 0.18906048 0 51
0.75733864 -0.71434826 0.18887813 0 51
0.75265414 -0.69264114 0.18557169 0 51
0.7380752 -0.66265041 0.17995454 0 51
0.75018263 -0.65704226 0.18092299 0 51
0.75445288 -0.64456344 0.18002774 0 51
0.73995978 -0.61660469 0.17474695 0 51
0.74283624 -0.60368174 0.17366008 0 51
0.75151902 -0.59554565 0.1739648 0 51
0.75269884 -0.58155811 0.1725695 0 51
0.76406813 -0.57547963 0.17354059 0 51
0.76056665 -0.55831927 0.17117308 0 51
0.75274163 -0.53845853 0.16790913 0 51
0.75056159 -0.5230689 0.16597557 0 51
0.75906652 -0.51524675 0.16644268 0 51
0.74673766 -0.49357605 0.16239619 0 51
0.74479526 -0.47923875 0.16068006 0 51
0.75198424 -0.47089195 0.16096963 0 51
0.75029677 -0.45708966 0.15939324 0 51
0.75816965 -0.4491981 0.15988024 0 51
0.75754213 -0.43633237 0.15860449 0 51
0.7537781 -0.42190734 0.15671837 0 51
0.76563984 -0.41626695 0.1581084 0 51
0.76942229 -0.40614697 0.15784624 0 51
0.77390695 -0.3964248 0.1577543 0 51
0.7812894 -0.38815442 0.15827428 0 51
0.78866243 -0.37979946 0.15880981 0 51
0.79658496 -0.37161893 0.15947291 0 51
0.80232209 -0.36235103 0.1597174 0 51
0.80674183 -0.35246962 0.15972236 0 51
0.80216628 -0.33878663 0.15797974 0 51
0.81312454 -0.33169362 0.15932259 0 51
0.81546903 -0.32101238 0.15899651 0 51
0.80397648 -0.30512527 0.1560124 0 51
0.82521415 -0.3016305 0.1594018 0 51
0.81864119 -0.28786772 0.15743649 0 51
0.82355684 -0.27826622 0.15771188 0 51
0.8186599 -0.26544216 0.15613724 0 51
0.84951311 -0.26394761 0.16139045 0 51
0.78101999 -0.23217566 0.14782457 0 51
0.78894436 -0.22401129 0.14879182 0 51
0.76964509 -0.20834017 0.14465797 0 51
0.78466129 -0.20208377 0.14700216 0 51
0.84046644 -0.2054705 0.15697175 0 51
0.85203719 -0.19722928 0.15866785 0 51
0.84531057 -0.18475199 0.15698028 0 51
0.71902138 -0.14791115 0.13317963 0 51
0.75842452 -0.14632078 0.14013417 0 51
0.80812967 -0.14562763 0.14897606 0 51
0.85514617 -0.14326741 0.15730675 0 51
0.71469438 -0.11072043 0.13120984 0 51
0.71417803 -0.10166489 0.13087565 0 51
0.79791331 -0.10359196 0.14597596 0 51
0.88481963 -0.10382897 0.16162944 0 51
0.98825634 -0.10366508 0.18027768 0 51
0.79599422 -0.0736145 0.14502914 0 51
0.91594929 -0.073361717 0.16670784 0 51
1.0885218 -0.073726095 0.19793703 0 51
1.3361331 -0.074005559 0.24277888 0 51
0.15962444 -2.0729897 0.39700368 0 52
0.15385941 -1.7213469 0.32999703 0 52
0.18757109 -1.8426989 0.35367671 0 52
0.20238687 -1.5973027 0.30743927 0 52
0.20057507 -1.3215283 0.25523224 0 52
0.26191097 -1.3803521 0.26827726 0 52
0.2486672 -1.2279189 0.23922741 0 52
0.29397145 -1.365126 0.26664269 0 52
0.29389653 -1.2876381 0.2521942 0 52
0.29657814 -1.2295017 0.24150375 0 52
0.29669583 -1.1668589 0.22989841 0 52
0.29623348 -1.1078235 0.21896818 0 52
0.29720414 -1.0590963 0.21004343 0 52
0.29290488 -0.99650818 0.19833006 0 52
0.34612155 -1.1261899 0.22497003 0 52
0.3456699 -1.0773649 0.2160494 0 52
0.34861994 -1.0423255 0.20986657 0 52
0.49083668 -1.4096723 0.28502348 0 52
0.51053256 -1.4101604 0.28636986 0 52
0.52964026 -1.408584 0.28735057 0 52
0.5545873 -1.4216207 0.29137921 0 52
0.55686313 -1.377197 0.28365603 0 52
0.57120913 -1.3641675 0.28239769 0 52
0.58591366 -1.3523659 0.28142482 0 52
0.60409814 -1.3486331 0.2821725 0 52
0.61189818 -1.3222251 0.27820045 0 52
0.64056748 -1.3406756 0.28371835 0 52
0.64636189 -1.3111125 0.27912298 0 52
0.66546619 -1.3090308 0.28040066 0 52
0.67959708 -1.2970964 0.27961314 0 52
0.68949646 -1.2775295 0.27720183 0 52
0.71139622 -1.2801915 0.27965641 0 52
0.73263538 -1.2810562 0.28179196 0 52
0.74480164 -1.2659519 0.28046286 0 52
0.76687199 -1.2675431 0.28288308 0 52
0.77995521 -1.2540885 0.28199947 0 52
0.78811079 -1.2331301 0.27944469 0 52
0.80418897 -1.2248328 0.27978417 0 52
0.81555963 -1.2094711 0.2785449 0 52
0.83621925 -1.2078017 0.2805073 0 52
0.85997564 -1.2100487 0.28346366 0 52
0.86013454 -1.1792915 0.27871513 0 52
0.89225543 -1.192259 0.28435141 0 52
0.89968145 -1.1718642 0.28210446 0 52
0.92292947 -1.1720248 0.28485361 0 52
0.92875588 -1.1500452 0.28226587 0 52
0.94261408 -1.1382825 0.28220239 0 52
0.96225941 -1.1333445 0.28389019 0 52
0.97484684 -1.1199627 0.28351939 0 52
0.99457997 -1.1146568 0.28525063 0 52
1.0152415 -1.1100315 0.28724003 0 52
1.0103436 -1.0777626 0.28208336 0 52
1.0370959 -1.0793891 0.28582525 0 52
1.0658361 -1.0823436 0.29005617 0 52
1.0885032 -1.0785098 0.2925936 0 52
0.73735207 -0.71283084 0.19583194 0 52
0.74732202 -0.70490026 0.19616295 0 52
0.76880485 -0.70750409 0.19950326 0 52
0.74633288 -0.67006421 0.19151923 0 52
0.76020265 -0.66581821 0.19296286 0 52
0.74789548 -0.63896114 0.18783039 0 52
0.75235915 -0.62693703 0.18700117 0 52
0.74929279 -0.6089288 0.18436401 0 52
0.74973327 -0.59413052 0.182661 0 52
0.75672352 -0.58466774 0.1825987 0 52
0.76650673 -0.57731634 0.18323255 0 52
0.77104694 -0.56601268 0.1826403 0 52
0.74199748 -0.53077292 0.17420012 0 52
0.7451632 -0.51930672 0.17343105 0 52
0.74716812 -0.50717026 0.17243317 0 52
0.75629836 -0.49989545 0.17310858 0 52
0.74046934 -0.47645524 0.16813178 0 52
0.76050925 -0.47623029 0.17133944 0 52
0.74989682 -0.456846 0.16767022 0 52
0.74918199 -0.44387311 0.16627744 0 52
0.74359548 -0.42829931 0.16385627 0 52
0.74396741 -0.41641608 0.1627976 0 52
0.7546106 -0.41027051 0.16401023 0 52
0.74856561 -0.39513758 0.16162813 0 52
0.75452524 -0.38649675 0.16187653 0 52
0.76392967 -0.37952986 0.16288061 0 52
0.75139034 -0.36185017 0.15924633 0 52
0.7598207 -0.35446784 0.16009714 0 52
0.74370182 -0.33587649 0.15581883 0 52
0.7543928 -0.32959807 0.15719774 0 52
0.77380884 -0.32681018 0.16039409 0 52
0.76190919 -0.3108016 0.15712349 0 52
0.77631402 -0.30559888 0.15930712 0 52
0.78314155 -0.29721797 0.15994611 0 52
0.79349136 -0.29003525 0.16131933 0 52
0.77099895 -0.2711148 0.156057 0 52
0.78248924 -0.26439017 0.15771277 0 52
0.7855562 -0.25470862 0.15768772 0 52
0.79815465 -0.24799031 0.15959248 0 52
0.76211804 -0.22655663 0.15181838 0 52
0.75857872 -0.21538933 0.15057434 0 52
0.75301397 -0.20383817 0.14896098 0 52
0.81102669 -0.20887399 0.15991686 0 52
0.81348974 -0.19887546 0.15990824 0 52
0.81046444 -0.18760604 0.15884808 0 52
0.82030755 -0.1792873 0.16033308 0 52
0.70417684 -0.14485745 0.13727625 0 52
0.73923451 -0.14261849 0.14375784 0 52
0.79939419 -0.14405346 0.15510081 0 52
0.85974681 -0.14403819 0.16645436 0 52
0.71504635 -0.11077496 0.13816495 0 52
0.73227084 -0.10424045 0.1412348 0 52
0.8084442 -0.10495917 0.15566584 0 52
0.88790476 -0.104191 0.17070638 0 52
0.97417575 -0.10218807 0.1870369 0 52
0.80755365 -0.074683525 0.15485826 0 52
0.90813076 -0.072735503 0.17396049 0 52
1.0714482 -0.072569691 0.20505895 0 52
1.3352522 -0.073956765 0.25535366 0 52
1.5933245 -0.068611845 0.30452308 0 52
1.5761175 -0.048464533 0.30109775 0 52
0.15842406 -2.0574007 0.41373765 0 53
0.15235208 -1.7044832 0.34311768 0 53
0.16792844 -1.6497294 0.33248615 0 53
0.2000455 -1.5788238 0.31909099 0 53
0.22298983 -1.6017224 0.32424861 0 53
0.1998827 -1.3169665 0.26708075 0 53
0.28910071 -1.6330363 0.33252117 0 53
0.23898199 -1.2595093 0.25704202 0 53
0.24910533 -1.2300824 0.25164264 0 53
0.29658765 -1.377275 0.28247911 0 53
0.2935974 -1.2863275 0.26454625 0 53
0.29413146 -1.2193588 0.25149825 0 53
0.29914105 -1.1764755 0.24339369 0 53
0.29879761 -1.1174126 0.2319171 0 53
0.29799864 -1.0619276 0.22114508 0 53
0.29742116 -1.0118732 0.21146697 0 53
0.34376094 -1.1185091 0.23461798 0 53
0.34741598 -1.0828071 0.22800799 0 53
0.34389031 -1.0281847 0.21738008 0 53
0.490464 -1.408602 0.29906085 0 53
0.51038235 -1.4097456 0.30061337 0 53
0.52640605 -1.3999826 0.29988912 0 53
0.55129457 -1.4131802 0.30414531 0 53
0.5583986 -1.3809946 0.29867348 0 53
0.56908965 -1.3591056 0.29543057 0 53
0.58478266 -1.3497554 0.29493889 0 53
0.59573072 -1.329953 0.2921904 0 53
0.61424947 -1.3273058 0.29324606 0 53
0.63338029 -1.3256333 0.29457498 0 53
0.65359843 -1.3257914 0.29637364 0 53
0.66384935 -1.3058504 0.29371855 0 53
0.67932069 -1.2965689 0.29348755 0 53
0.69109339 -1.2804884 0.29174912 0 53
0.71520525 -1.287046 0.2952247 0 53
0.73312539 -1.281913 0.29609272 0 53
0.73850864 -1.2552555 0.29201087 0 53
0.7590099 -1.254548 0.29399523 0 53
0.76798588 -1.234843 0.29156852 0 53
0.79055911 -1.2369609 0.29434165 0 53
0.80843675 -1.2313024 0.29533833 0 53
0.82309628 -1.2206479 0.29518813 0 53
0.83975095 -1.2129028 0.29578987 0 53
0.85595399 -1.2043899 0.29625821 0 53
0.86799204 -1.1900645 0.29533753 0 53
0.88108468 -1.1773323 0.29484421 0 53
0.8983801 -1.1701691 0.29579446 0 53
0.91658616 -1.1639695 0.2970539 0 53
0.92257667 -1.1423937 0.29442051 0 53
0.9486044 -1.1455164 0.29820898 0 53
0.95463133 -1.1243602 0.29573497 0 53
0.97654545 -1.1219141 0.29822746 0 53
0.99394053 -1.1139401 0.29933402 0 53
1.0063467 -1.1003063 0.29897302 0 53
1.0250957 -1.0934991 0.30052567 0 53
1.0364345 -1.0787008 0.29993856 0 53
1.0482663 -1.0645016 0.29955187 0 53
0.76204526 -0.75504893 0.21509217 0 53
0.74100423 -0.71636158 0.20665127 0 53
0.75236684 -0.70965874 0.2073708 0 53
0.75243896 -0.69244313 0.20502836 0 53
0.77233279 -0.69340718 0.20811006 0 53
0.78759164 -0.6898067 0.2099202 0 53
0.78200191 -0.66809982 0.2062251 0 53
0.79720455 -0.66430652 0.20806435 0 53
0.74691564 -0.60699695 0.1929767 0 53
0.75007594 -0.59440207 0.19189031 0 53
0.73986721 -0.57164401 0.18746619 0 53
0.76066333 -0.5729152 0.19093604 0 53
0.74968499 -0.55033118 0.18646759 0 53
0.74520802 -0.53306949 0.18370979 0 53
0.74197668 -0.51708603 0.18133201 0 53
0.75244826 -0.51075435 0.1823425 0 53
0.74384338 -0.49166301 0.17877866 0 53
0.75644279 -0.48673335 0.18035474 0 53
0.75240219 -0.47115368 0.17799659 0 53
0.73821503 -0.44972932 0.17331895 0 53
0.76117337 -0.45097774 0.17739376 0 53
0.76407713 -0.44009641 0.17679593 0 53
0.74511367 -0.41705763 0.17120852 0 53
0.75472295 -0.41033161 0.1722441 0 53
0.7447046 -0.39309952 0.16884176 0 53
0.75326622 -0.38585183 0.16969433 0 53
0.75696969 -0.37607208 0.16947408 0 53
0.75080383 -0.36156771 0.1670856 0 53
0.75850624 -0.35385463 0.16781871 0 53
0.75665939 -0.34172848 0.16646782 0 53
0.75353813 -0.32922468 0.16487803 0 53
0.74919152 -0.31641331 0.16306332 0 53
0.75012785 -0.3059957 0.16243587 0 53
0.7533803 -0.29657093 0.16233823 0 53
0.75650126 -0.28710744 0.16223772 0 53
0.76348847 -0.27906868 0.16298793 0 53
0.74540842 -0.2621161 0.15842821 0 53
0.75695771 -0.2557635 0.16020234 0 53
0.76001155 -0.24642603 0.16019525 0 53
0.76369607 -0.23728387 0.16034473 0 53
0.74837494 -0.22247119 0.15654173 0 53
0.76519787 -0.21726875 0.15948978 0 53
0.75762987 -0.20508768 0.15737484 0 53
0.76984054 -0.19826677 0.15939277 0 53
0.76226854 -0.18635331 0.15733869 0 53
0.76221246 -0.17643668 0.15686744 0 53
0.77074242 -0.16845429 0.15818469 0 53
0.70515567 -0.14505881 0.14434688 0 53
0.76042712 -0.14670713 0.15528005 0 53
0.81531894 -0.14692315 0.16610755 0 53
0.85584575 -0.14338462 0.17399184 0 53
0.70793658 -0.10967351 0.14363717 0 53
0.7201125 -0.10250968 0.14584082 0 53
0.80525434 -0.10454504 0.16281152 0 53
0.89141196 -0.10460255 0.17995775 0 53
0.97620684 -0.10240112 0.19680701 0 53
0.79963917 -0.073951587 0.1610148 0 53
0.92206335 -0.073851414 0.18546917 0 53
1.0800009 -0.073148966 0.21704032 0 53
1.3314447 -0.073745884 0.26736879 0 53
1.5289274 -0.065838777 0.30683973 0 53
1.5490832 -0.047633249 0.31074375 0 53
1.5665512 -0.028896397 0.31415278 0 53
1.5715762 -0.0096620563 0.31511286 0 53
0.1580115 -2.0520427 0.432401 0 54
0.15404335 -1.7234048 0.36352292 0 54
0.16941057 -1.6642898 0.35146651 0 54
0.21929559 -1.5751868 0.33413127 0 54
0.24048547 -1.584486 0.33670563 0 54
0.26936769 -1.6387056 0.34890485 0 54
0.2764971 -1.5618427 0.33323827 0 54
0.24332285 -1.282387 0.27423063 0 54
0.29798013 -1.3837413 0.29738203 0 54
0.2952415 -1.2935307 0.27875388 0 54
0.29604578 -1.2272948 0.26524457 0 54
0.29502589 -1.1602913 0.25152871 0 54
0.29608196 -1.1072569 0.24080291 0 54
0.29798251 -1.0618701 0.23171167 0 54
0.29339468 -0.99817449 0.21858333 0 54
0.34501269 -1.122582 0.24673681 0 54
0.34394377 -1.071985 0.23652761 0 54
0.34074041 -1.0187669 0.22569273 0 54
0.4926827 -1.414974 0.31478485 0 54
0.50975466 -1.4080118 0.3146067 0 54
0.52662879 -1.4005749 0.31436819 0 54
0.55141139 -1.4134797 0.31876254 0 54
0.55778205 -1.3794698 0.31261587 0 54
0.56966317 -1.3604752 0.30987534 0 54
0.5849281 -1.3500911 0.30912504 0 54
0.59809685 -1.3352354 0.30738425 0 54
0.61663103 -1.3324522 0.30846575 0 54
0.63230395 -1.3233806 0.3081423 0 54
0.64361304 -1.3055366 0.30580708 0 54
0.66178048 -1.3017807 0.30681026 0 54
0.67912412 -1.2961937 0.30743843 0 54
0.69607973 -1.2897272 0.30791152 0 54
0.71371484 -1.284364 0.30870301 0 54
0.72330451 -1.2647406 0.30610102 0 54
0.74857056 -1.2723579 0.31014895 0 54
0.76047701 -1.2569729 0.30865484 0 54
0.77176481 -1.2409191 0.30701986 0 54
0.79570305 -1.2450094 0.31042916 0 54
0.80529243 -1.2265134 0.30826309 0 54
0.82007587 -1.2161688 0.30817428 0 54
0.8380838 -1.2104949 0.30932453 0 54
0.86038411 -1.2106234 0.31203729 0 54
0.8688218 -1.1912023 0.30976173 0 54
0.87203801 -1.1652439 0.30577677 0 54
0.89677489 -1.1680782 0.30939087 0 54
0.90794122 -1.1529914 0.30832863 0 54
0.92588484 -1.14649 0.3096112 0 54
0.92820245 -1.1208794 0.30575418 0 54
0.95783752 -1.1281364 0.31092307 0 54
0.97528505 -1.1204661 0.31209072 0 54
0.9824518 -1.1010643 0.31002811 0 54
1.0085214 -1.102684 0.31395224 0 54
1.0099483 -1.0773408 0.31024903 0 54
1.0375251 -1.0798358 0.31461766 0 54
1.0532838 -1.0695969 0.31538421 0 54
0.74467266 -0.73783582 0.22024363 0 54
0.74069923 -0.71606672 0.21644792 0 54
0.73945242 -0.6974774 0.21356119 0 54
0.74726361 -0.68768042 0.21335882 0 54
0.74541599 -0.66924101 0.21046576 0 54
0.7554673 -0.6616708 0.21099052 0 54
0.75328094 -0.64356214 0.20815402 0 54
0.74386835 -0.61986172 0.20343146 0 54
0.78498501 -0.6379348 0.21251462 0 54
0.78594941 -0.62283021 0.2106864 0 54
0.79424274 -0.61365622 0.21087086 0 54
0.78662539 -0.59246922 0.20689857 0 54
0.78837788 -0.57873505 0.20547223 0 54
0.74438792 -0.53248286 0.19228625 0 54
0.75805497 -0.52829105 0.19412392 0 54
0.75361633 -0.51154721 0.19136199 0 54
0.74526066 -0.49259979 0.18768799 0 54
0.73105133 -0.47039521 0.18263899 0 54
0.75295979 -0.47150284 0.1866498 0 54
0.74329239 -0.45282251 0.18285927 0 54
0.74709231 -0.44263503 0.18244131 0 54
0.7441417 -0.42861393 0.18042007 0 54
0.74513608 -0.41707021 0.17940418 0 54
0.75760007 -0.41189587 0.18117194 0 54
0.75142848 -0.39664876 0.17851621 0 54
0.74345869 -0.38082802 0.17549706 0 54
0.7486589 -0.37194318 0.1756317 0 54
0.75237727 -0.36232546 0.17544556 0 54
0.74120164 -0.3457818 0.17183505 0 54
0.74423116 -0.33611557 0.17156625 0 54
0.76027519 -0.33216813 0.17431007 0 54
0.75032943 -0.31689391 0.17112346 0 54
0.74484783 -0.30384186 0.16900843 0 54
0.75878841 -0.29869983 0.17132522 0 54
0.75500983 -0.2865414 0.1696637 0 54
0.74999309 -0.27413589 0.16776617 0 54
0.75510556 -0.26552603 0.16816671 0 54
0.74598092 -0.2520546 0.16543183 0 54
0.74908555 -0.24288337 0.16544549 0 54
0.75008672 -0.23305538 0.1650212 0 54
0.74781436 -0.22230455 0.1639075 0 54
0.76823598 -0.21813138 0.16778296 0 54
0.75372422 -0.20403042 0.16405325 0 54
0.7599653 -0.1957235 0.16487537 0 54
0.75469989 -0.18450297 0.16322848 0 54
0.76306319 -0.17663361 0.16455513 0 54
0.77812022 -0.17006679 0.16733856 0 54
0.7001422 -0.14402747 0.15017678 0 54
0.7480666 -0.14432244 0.16006355 0 54
0.8037672 -0.14484151 0.17158774 0 54
0.87202346 -0.14609496 0.1857615 0 54
0.71136987 -0.1102054 0.1512384 0 54
0.72546417 -0.1032715 0.15395324 0 54
0.80419701 -0.10440776 0.17037608 0 54
0.88704324 -0.1040899 0.18764243 0 54
0.98398858 -0.10321741 0.20786574 0 54
0.78579021 -0.072670817 0.1657954 0 54
0.91678888 -0.073428959 0.19322994 0 54
1.074769 -0.072794609 0.22632137 0 54
1.3185898 -0.073033877 0.27745429 0 54
1.5619206 -0.0096026929 0.32815856 0 54
1.5692669 0.0096478583 0.32970202 0 54
0.15696025 -2.0383906 0.44920972 0 55
0.15220028 -1.7027849 0.37563476 0 55
0.16844727 -1.6548265 0.36548442 0 55
0.23871748 -1.5728372 0.34954831 0 55
0.25820225 -1.5707805 0.34977037 0 55
0.27682811 -1.5637124 0.34892809 0 55
0.33039835 -1.7413019 0.3894327 0 55
0.29487702 -1.3693312 0.30777249 0 55
0.29665068 -1.2997047 0.29292089 0 55
0.29612574 -1.2276263 0.27747589 0 55
0.29309574 -1.1527003 0.26133549 0 55
0.29889297 -1.1177691 0.25423008 0 55
0.29447395 -1.0493672 0.2394779 0 55
0.29381889 -0.99961782 0.22893174 0 55
0.34397033 -1.1191905 0.25726539 0 55
0.34452081 -1.0737835 0.2477829 0 55
0.34536156 -1.0325835 0.23923759 0 55
0.48723182 -1.3993192 0.32556945 0 55
0.51104712 -1.4115819 0.32985964 0 55
0.52960026 -1.4084775 0.33063105 0 55
0.55371565 -1.4193864 0.33476481 0 55
0.56222969 -1.3904693 0.3295503 0 55
0.56826079 -1.357126 0.32327938 0 55
0.58592606 -1.3523945 0.32384405 0 55
0.60129398 -1.3423728 0.32319036 0 55
0.61716032 -1.3335959 0.32287994 0 55
0.63353592 -1.325959 0.32289264 0 55
0.65118039 -1.3208865 0.32358283 0 55
0.66101491 -1.3002748 0.32050046 0 55
0.67569852 -1.2896554 0.31990674 0 55
0.69481605 -1.2873858 0.32143879 0 55
0.71285546 -1.2828175 0.32246238 0 55
0.72185212 -1.2622011 0.31948709 0 55
0.74502581 -1.2663329 0.3228274 0 55
0.75615078 -1.2498223 0.3209644 0 55
0.77339149 -1.2435348 0.32176766 0 55
0.78576511 -1.2294599 0.32060161 0 55
0.80952883 -1.2329657 0.32408708 0 55
0.81132925 -1.2031975 0.31886068 0 55
0.83579564 -1.2071899 0.32261792 0 55
0.85528976 -1.2034553 0.324406 0 55
0.85263407 -1.169008 0.31792244 0 55
0.88532287 -1.1829954 0.32466257 0 55
0.88602239 -1.1540728 0.31969085 0 55
0.91127527 -1.1572253 0.32364368 0 55
0.92392337 -1.1440612 0.32311502 0 55
0.9370628 -1.131579 0.32281956 0 55
0.94042814 -1.1076318 0.31926271 0 55
0.96754992 -1.1115795 0.32380542 0 55
0.9802016 -1.0985425 0.32349432 0 55
1.0041789 -1.097936 0.32692716 0 55
1.0307723 -1.0995545 0.33115819 0 55
1.0368338 -1.0791163 0.32881767 0 55
1.0605057 -1.0769306 0.33210012 0 55
0.7423076 -0.73549253 0.22960606 0 55
0.74460429 -0.71984184 0.22756135 0 55
0.73766071 -0.69578737 0.22280771 0 55
0.74311274 -0.68386054 0.22189778 0 55
0.74896163 -0.67242426 0.22115855 0 55
0.73690826 -0.64541602 0.21523958 0 55
0.73953056 -0.63181466 0.21372014 0 55
0.74757755 -0.62295252 0.21381576 0 55
0.74820513 -0.60804486 0.21184079 0 55
0.73871624 -0.58540004 0.20710045 0 55
0.7537694 -0.5823853 0.20929714 0 55
0.74923092 -0.56430453 0.20609464 0 55
0.76292688 -0.56005186 0.20795198 0 55
0.80150741 -0.57334214 0.21652991 0 55
0.78978646 -0.55040485 0.21151906 0 55
0.7912991 -0.53712595 0.21013941 0 55
0.79809725 -0.52752358 0.21020624 0 55
0.79498845 -0.51153558 0.20771502 0 55
0.74009728 -0.46344838 0.19186954 0 55
0.74496764 -0.45384312 0.19167091 0 55
0.75427204 -0.44688886 0.19263642 0 55
0.74744159 -0.4305146 0.18952562 0 55
0.75005823 -0.41982523 0.18886583 0 55
0.75060982 -0.40809536 0.18772696 0 55
0.74554437 -0.3935428 0.18523581 0 55
0.74508762 -0.38166243 0.18394238 0 55
0.7453956 -0.3703219 0.18288042 0 55
0.74642217 -0.35945761 0.18203406 0 55
0.74443078 -0.34728822 0.18049332 0 55
0.74329042 -0.33569071 0.17920247 0 55
0.74654335 -0.32616863 0.17900623 0 55
0.75660872 -0.31954589 0.18046391 0 55
0.7561903 -0.30846873 0.17944583 0 55
0.75423062 -0.29690567 0.17810097 0 55
0.74267083 -0.28185853 0.17453967 0 55
0.75903362 -0.27744034 0.17757 0 55
0.75945705 -0.26705617 0.17688745 0 55
0.76435304 -0.25826225 0.17727473 0 55
0.73908973 -0.23964234 0.17071913 0 55
0.75553113 -0.23474699 0.17383696 0 55
0.76702487 -0.2280153 0.17582309 0 55
0.75423402 -0.21415569 0.17227441 0 55
0.76059109 -0.20588927 0.17313509 0 55
0.74859643 -0.19279552 0.16985221 0 55
0.76232302 -0.18636662 0.1724337 0 55
0.75951231 -0.17581165 0.17129597 0 55
0.76133192 -0.16639751 0.17123196 0 55
0.71733028 -0.14756328 0.16091524 0 55
0.74859059 -0.14442353 0.16751666 0 55
0.81065083 -0.14608194 0.18098861 0 55
0.85910583 -0.14393079 0.19139723 0 55
0.71115589 -0.11017224 0.1581222 0 55
0.73024333 -0.10395183 0.16206974 0 55
0.79118776 -0.10271879 0.17530213 0 55
0.87490118 -0.1026651 0.19355603 0 55
0.97799796 -0.102589 0.21606889 0 55
0.79124159 -0.073174968 0.17459686 0 55
0.91358697 -0.07317251 0.20138006 0 55
1.0829045 -0.073345624 0.23848552 0 55
1.3441552 -0.074449889 0.29579619 0 55
1.555295 0.0095619578 0.34174252 0 55
1.5645622 0.028859708 0.34383076 0 55
0.16524601 -1.8487378 0.42577666 0 56
0.16825989 -1.6529857 0.3811413 0 56
0.32446745 -1.7100441 0.39926955 0 56
0.29791015 -1.3834164 0.32461959 0 56
0.29596469 -1.2966992 0.30510223 0 56
0.2939747 -1.2187089 0.28758058 0 56
0.29580632 -1.1633606 0.27535748 0 56
0.29661486 -1.1092497 0.26339325 0 56
0.29653004 -1.0566941 0.25176063 0 56
0.29768816 -1.0127816 0.24215217 0 56
0.34520724 -1.123215 0.26955092 0 56
0.34123161 -1.063532 0.25621563 0 56
0.34743163 -1.0387727 0.25126112 0 56
0.48916528 -1.4048721 0.34124333 0 56
0.51286525 -1.4166038 0.34559867 0 56
0.5276323 -1.4032439 0.34389618 0 56
0.54809207 -1.4049709 0.34594497 0 56
0.56149936 -1.3886631 0.34360361 0 56
0.56911886 -1.3591754 0.33801335 0 56
0.58509248 -1.3504705 0.33761224 0 56
0.59833622 -1.3357698 0.33575106 0 56
0.62434554 -1.349122 0.34101114 0 56
0.63843775 -1.3362182 0.33970818 0 56
0.64871329 -1.3158822 0.33654064 0 56
0.66436332 -1.3068614 0.33629745 0 56
0.68375123 -1.3050251 0.33796293 0 56
0.69720799 -1.2918177 0.33673736 0 56
0.71380389 -1.2845242 0.33709866 0 56
0.72858024 -1.2739656 0.33665338 0 56
0.74489588 -1.2661121 0.33697304 0 56
0.75616777 -1.2498503 0.33509439 0 56
0.77628773 -1.2481916 0.33718345 0 56
0.78740937 -1.2320327 0.33540851 0 56
0.8000136 -1.2184734 0.33436999 0 56
0.82021236 -1.2163712 0.33653533 0 56
0.83116394 -1.2005 0.3349466 0 56
0.85240841 -1.199401 0.3375389 0 56
0.86424595 -1.1849284 0.33643129 0 56
0.86788893 -1.1596997 0.33227313 0 56
0.88767874 -1.1562302 0.33438119 0 56
0.89781851 -1.1401365 0.3328945 0 56
0.92546809 -1.1459739 0.33789608 0 56
0.94373363 -1.1396346 0.33942288 0 56
0.95685363 -1.1269777 0.33913186 0 56
0.96901035 -1.1132574 0.33856314 0 56
0.9788819 -1.0970634 0.33727339 0 56
1.0124211 -1.1069478 0.34411344 0 56
1.0186654 -1.0866398 0.34166846 0 56
1.0372415 -1.0795405 0.34342062 0 56
1.0420834 -1.058223 0.34068972 0 56
0.7262423 -0.71957475 0.23452088 0 56
0.73387003 -0.70946455 0.23414919 0 56
0.7273041 -0.68601871 0.22934546 0 56
0.73082542 -0.67255294 0.2278308 0 56
0.74274951 -0.66684705 0.22897449 0 56
0.74426627 -0.65186048 0.22695386 0 56
0.74601185 -0.63735187 0.22507931 0 56
0.7457478 -0.62142783 0.22267734 0 56
0.73028195 -0.59347916 0.21586388 0 56
0.74322557 -0.58897346 0.21753271 0 56
0.73876399 -0.5707916 0.21415637 0 56
0.74350756 -0.5599938 0.21351919 0 56
0.74793887 -0.54904938 0.21283683 0 56
0.75579649 -0.54064375 0.21316493 0 56
0.73326653 -0.51101589 0.20502283 0 56
0.73944902 -0.50193059 0.20501027 0 56
0.75182915 -0.49694145 0.20673284 0 56
0.75582367 -0.48633495 0.20617123 0 56
0.79704922 -0.49911162 0.2157262 0 56
0.78340042 -0.4772568 0.21042779 0 56
0.78797501 -0.46685708 0.21009868 0 56
0.77860564 -0.4484646 0.20611459 0 56
0.77814388 -0.43554544 0.20455912 0 56
0.77532953 -0.4215351 0.20244136 0 56
0.74630904 -0.39394644 0.19358455 0 56
0.74868393 -0.3835046 0.19296277 0 56
0.74005872 -0.36767048 0.18956017 0 56
0.75282693 -0.362542 0.19167428 0 56
0.73999375 -0.3452183 0.18731192 0 56
0.74537247 -0.336631 0.18761145 0 56
0.75037247 -0.32784158 0.18784107 0 56
0.76528656 -0.3232109 0.19056521 0 56
0.74140835 -0.3024388 0.18367931 0 56
0.75887418 -0.29873359 0.18708217 0 56
0.74261194 -0.28183618 0.18220498 0 56
0.73764509 -0.26962245 0.18015924 0 56
0.74745095 -0.26283434 0.1817511 0 56
0.7313925 -0.24712543 0.177094 0 56
0.74825263 -0.24261332 0.1804404 0 56
0.75203866 -0.23366186 0.18064687 0 56
0.74808389 -0.22238466 0.17902648 0 56
0.76180428 -0.21630518 0.18165971 0 56
0.74876004 -0.20268664 0.17794141 0 56
0.75039029 -0.19325753 0.17775066 0 56
0.74675673 -0.18256111 0.17634487 0 56
0.76580828 -0.17726904 0.18031546 0 56
0.76148194 -0.16643031 0.1788014 0 56
0.72208881 -0.14854217 0.16910996 0 56
0.75331694 -0.14533538 0.17599158 0 56
0.80491394 -0.14504814 0.18761493 0 56
0.86812329 -0.14544155 0.20191608 0 56
0.71318895 -0.11048721 0.16555153 0 56
0.72606492 -0.10335702 0.16823266 0 56
0.8129248 -0.10554089 0.18804359 0 56
0.8892538 -0.1043493 0.20538747 0 56
0.99691814 -0.10457367 0.22993991 0 56
0.79361928 -0.073394865 0.18282689 0 56
0.91473448 -0.07326442 0.21050487 0 56
1.0873979 -0.073649973 0.25001204 0 56
1.333208 -0.073843546 0.3062962 0 56
1.5808798 0.029160701 0.36270311 0 56
1.5728396 0.048363738 0.36096758 0 56
0.16343534 -1.8284804 0.43893436 0 57
0.16805257 -1.650949 0.39678326 0 57
0.3322404 -1.7510101 0.42613798 0 57
0.29470471 -1.3685311 0.33471814 0 57
0.29431704 -1.2894804 0.31624499 0 57
0.29801223 -1.235447 0.30386904 0 57
0.29384476 -1.1556461 0.28510845 0 57
0.29718924 -1.1113977 0.27507275 0 57
0.29769298 -1.0608382 0.26344529 0 57
0.29554608 -1.005494 0.25058481 0 57
0.34841385 -1.1336485 0.28356919 0 57
0.34246761 -1.0673841 0.26802704 0 57
0.34467846 -1.0305411 0.25982013 0 57
0.48775691 -1.4008272 0.35466203 0 57
0.51064628 -1.4104747 0.35866722 0 57
0.5296244 -1.4085419 0.3598046 0 57
0.55088675 -1.4121348 0.36242536 0 57
0.5676946 -1.4039848 0.36209786 0 57
0.57481003 -1.3727671 0.35584262 0 57
0.58369368 -1.3472418 0.35106 0 57
0.60353404 -1.3473737 0.35300151 0 57
0.61872786 -1.3369831 0.3522459 0 57
0.63562965 -1.330341 0.35252854 0 57
0.65138936 -1.3213104 0.35223141 0 57
0.66545951 -1.3090177 0.35110927 0 57
0.67716074 -1.2924463 0.34887147 0 57
0.69362932 -1.285187 0.34918785 0 57
0.70933926 -1.2764899 0.3491683 0 57
0.72441316 -1.2666792 0.34889495 0 57
0.7480213 -1.2714243 0.35270882 0 57
0.75845033 -1.2536231 0.35033125 0 57
0.77417493 -1.2447944 0.35049784 0 57
0.79317814 -1.2410588 0.35216561 0 57
0.80714744 -1.2293386 0.35162967 0 57
0.81942552 -1.2152042 0.35044232 0 57
0.83782983 -1.2101279 0.35192284 0 57
0.84493363 -1.1888834 0.34873974 0 57
0.84767216 -1.162205 0.34394556 0 57
0.87452573 -1.168568 0.34898472 0 57
0.88509291 -1.1528621 0.34751827 0 57
0.90449888 -1.1486199 0.34956571 0 57
0.91269684 -1.1301597 0.34733695 0 57
0.93497539 -1.1290582 0.35050529 0 57
0.95058566 -1.1195952 0.35116974 0 57
0.97598898 -1.1212748 0.35543397 0 57
0.98103917 -1.0994811 0.35232291 0 57
0.99523187 -1.0881536 0.35258794 0 57
1.0122901 -1.079839 0.35390037 0 57
1.0326452 -1.0747569 0.35636938 0 57
1.037039 -1.0531006 0.35339013 0 57
0.7223264 -0.71569473 0.24312867 0 57
0.7323029 -0.70794958 0.24353816 0 57
0.73642534 -0.69462216 0.24205026 0 57
0.73250753 -0.67410094 0.23802008 0 57
0.74135673 -0.66559654 0.23821805 0 57
0.73871714 -0.64700031 0.2347957 0 57
0.74039823 -0.6325559 0.23284018 0 57
0.73721564 -0.61431801 0.22944641 0 57
0.73734784 -0.59922147 0.22717713 0 57
0.75376636 -0.59732658 0.22995529 0 57
0.74840754 -0.57824254 0.22613417 0 57
0.74614292 -0.56197876 0.22334503 0 57
0.73374063 -0.53862673 0.21763362 0 57
0.74811715 -0.53515047 0.21992937 0 57
0.74111766 -0.51648736 0.21598831 0 57
0.73635942 -0.49983341 0.21279427 0 57
0.75688368 -0.50028235 0.21693128 0 57
0.7487464 -0.4817811 0.21288501 0 57
0.74603999 -0.4671697 0.21046631 0 57
0.73502862 -0.44778815 0.20579097 0 57
0.74258745 -0.43996599 0.20637697 0 57
0.74738944 -0.43048456 0.2062248 0 57
0.74532574 -0.41717637 0.20422448 0 57
0.785653 -0.42714781 0.21381906 0 57
0.78755891 -0.41572058 0.21293046 0 57
0.7878561 -0.40357009 0.2116531 0 57
0.79401439 -0.39447635 0.21198836 0 57
0.79535717 -0.38302347 0.21107346 0 57
0.79240912 -0.36967087 0.20906897 0 57
0.78723484 -0.35553721 0.2065347 0 57
0.74175084 -0.32407475 0.19354165 0 57
0.73943257 -0.31229171 0.19192027 0 57
0.7536189 -0.30741978 0.19460648 0 57
0.74186981 -0.29203978 0.19063081 0 57
0.74445784 -0.28253672 0.19038869 0 57
0.74322402 -0.27166167 0.18920456 0 57
0.73353505 -0.25794095 0.1859165 0 57
0.74171448 -0.25061306 0.18719441 0 57
0.74710923 -0.24224259 0.18778996 0 57
0.74851 -0.23256549 0.18740907 0 57
0.74752158 -0.22221752 0.18646334 0 57
0.73465502 -0.20859647 0.18260026 0 57
0.73867303 -0.19995613 0.182974 0 57
0.75393915 -0.1941715 0.18615 0 57
0.74834263 -0.18294881 0.18419884 0 57
0.76368183 -0.17677681 0.18742526 0 57
0.78121614 -0.17074344 0.19119884 0 57
0.69971621 -0.14393985 0.17080604 0 57
0.75185645 -0.1450536 0.18308461 0 57
0.81052709 -0.14605965 0.19691928 0 57
0.86234874 -0.14447409 0.20906202 0 57
0.7174719 -0.11115072 0.17359459 0 57
0.71743792 -0.10212895 0.17326942 0 57
0.79924113 -0.10376435 0.19270311 0 57
0.8815214 -0.10344195 0.21221879 0 57
0.95957994 -0.10065702 0.23069531 0 57
0.80523944 -0.074469507 0.1933551 0 57
0.92217505 -0.073860355 0.22119902 0 57
1.079738 -0.073131166 0.25875786 0 57
2.0240602 -0.11210837 0.48469645 0 57
1.5653205 0.048132531 0.37444651 0 57
1.5693855 0.067580983 0.37558931 0 57
0.16369386 -1.8313726 0.45755866 0 58
0.16851808 -1.6555221 0.4141098 0 58
0.34927949 -1.7247425 0.4379192 0 58
0.29614004 -1.3751965 0.35006616 0 58
0.29489383 -1.2920076 0.32978794 0 58
0.30089444 -1.2473955 0.31932089 0 58
0.29488033 -1.1597189 0.29778224 0 58
0.29386654 -1.0989718 0.28309059 0 58
0.29627153 -1.0557729 0.27288055 0 58
0.29678687 -1.0097153 0.26189974 0 58
0.34759185 -1.1309738 0.29443812 0 58
0.34497306 -1.075193 0.28099924 0 58
0.34039485 -1.0177337 0.26705611 0 58
0.48797044 -1.4014405 0.36928836 0 58
0.50611061 -1.3979465 0.36997962 0 58
0.53193694 -1.4146922 0.37611419 0 58
0.5473997 -1.4031962 0.37481904 0 58
0.57183492 -1.4142243 0.37961441 0 58
0.58867925 -1.4058897 0.37929156 0 58
0.61428648 -1.4178541 0.38452819 0 58
0.60361511 -1.3475546 0.36744785 0 58
0.61872262 -1.3369718 0.36660901 0 58
0.63834488 -1.3360239 0.36847359 0 58
0.65226579 -1.3230882 0.36709026 0 58
0.66431427 -1.306765 0.36480021 0 58
0.67899489 -1.2959471 0.36408353 0 58
0.699422 -1.2959199 0.36646441 0 58
0.71513522 -1.28692 0.36637837 0 58
0.73205823 -1.2800469 0.36695668 0 58
0.75081098 -1.276166 0.36846289 0 58
0.75775909 -1.2524806 0.36428705 0 58
0.77873152 -1.2521209 0.36693978 0 58
0.79290324 -1.2406287 0.36640149 0 58
0.80781031 -1.2303482 0.36627126 0 58
0.82184368 -1.2187903 0.36581132 0 58
0.83718753 -1.2092003 0.36599505 0 58
0.86016673 -1.2103175 0.36950669 0 58
0.85517395 -1.1724902 0.3611412 0 58
0.86261034 -1.1526463 0.35826907 0 58
0.88059914 -1.1470088 0.35985526 0 58
0.90903538 -1.1543808 0.36564735 0 58
0.9229399 -1.1428435 0.36556002 0 58
0.92386073 -1.1156365 0.36046389 0 58
0.95310879 -1.1225669 0.36646214 0 58
0.97035772 -1.1148052 0.36779574 0 58
0.9943558 -1.1144055 0.37166971 0 58
1.0032823 -1.0969558 0.3699365 0 58
1.0075731 -1.0748073 0.36661771 0 58
1.0288155 -1.070771 0.3695282 0 58
1.0524874 -1.0687881 0.37328196 0 58
0.72876638 -0.72207558 0.25530061 0 58
0.72554618 -0.70141757 0.25113204 0 58
0.73560268 -0.69384617 0.25164074 0 58
0.72057849 -0.66312307 0.24369332 0 58
0.73243314 -0.65758491 0.24494934 0 58
0.73736542 -0.64581645 0.2439246 0 58
0.73741555 -0.63000762 0.24136022 0 58
0.73519897 -0.61263758 0.23815103 0 58
0.73612177 -0.59822506 0.23604928 0 58
0.7333957 -0.58118373 0.23286588 0 58
0.73890156 -0.57089788 0.23236752 0 58
0.74699289 -0.56261891 0.23271886 0 58
0.73630875 -0.54051191 0.22730249 0 58
0.74251789 -0.53114516 0.22718589 0 58
0.74100697 -0.51641023 0.22476372 0 58
0.74791759 -0.50767899 0.22494932 0 58
0.74440306 -0.49203295 0.22205575 0 58
0.74774659 -0.48113775 0.22127156 0 58
0.72605461 -0.45465484 0.21318203 0 58
0.73956203 -0.45054993 0.21550506 0 58
0.73469895 -0.43529227 0.21251221 0 58
0.74961984 -0.43176925 0.21527611 0 58
0.75002134 -0.41980457 0.21389277 0 58
0.73866659 -0.401602 0.20923048 0 58
0.74634761 -0.39396679 0.21001808 0 58
0.74588448 -0.38207063 0.20854998 0 58
0.73435676 -0.36483768 0.20405702 0 58
0.74794167 -0.36018938 0.20658557 0 58
0.74816465 -0.34903014 0.2054462 0 58
0.75212032 -0.33967853 0.20536993 0 58
0.79005897 -0.34518081 0.21455406 0 58
0.78732204 -0.33251733 0.21268433 0 58
0.78215158 -0.31905898 0.21021189 0 58
0.79797536 -0.31412593 0.21341045 0 58
0.78479248 -0.29784453 0.20888954 0 58
0.79085618 -0.28907207 0.20954157 0 58
0.78898543 -0.27743956 0.20812626 0 58
0.76911461 -0.2598711 0.20202632 0 58
0.77587497 -0.25156957 0.2029742 0 58
0.74533284 -0.23157834 0.19422454 0 58
0.75071508 -0.22316685 0.19489725 0 58
0.74928766 -0.21275124 0.19383284 0 58
0.75107312 -0.20331278 0.19363333 0 58
0.74732929 -0.19246918 0.19204348 0 58
0.74129605 -0.18122612 0.18990609 0 58
0.75913262 -0.17572376 0.19390728 0 58
0.7687844 -0.16802634 0.19583009 0 58
0.71416634 -0.14691241 0.18144353 0 58
0.75549883 -0.14575632 0.19147477 0 58
0.80891997 -0.14577004 0.20454416 0 58
0.86739141 -0.14531893 0.21886091 0 58
0.70520055 -0.10924964 0.17758438 0 58
0.70791763 -0.10077371 0.1779431 0 58
0.78660858 -0.10212428 0.19739239 0 58
0.88196325 -0.10349379 0.22098474 0 58
0.97952634 -0.10274933 0.24509504 0 58
0.78237718 -0.072355181 0.19552739 0 58
0.90934205 -0.072832517 0.22701676 0 58
1.0762734 -0.072896503 0.26844701 0 58
2.0146377 -0.11158648 0.50211614 0 58
1.575636 0.067850143 0.39246443 0 58
1.5638986 0.086621009 0.38977668 0 58
0.16440463 -1.8393246 0.47763604 0 59
0.17094819 -1.6793956 0.43661848 0 59
0.34535313 -1.7053541 0.45004186 0 59
0.29516113 -1.3706505 0.3626442 0 59
0.29670331 -1.2999353 0.3448737 0 59
0.29638961 -1.2287202 0.32692245 0 59
0.29557493 -1.1624506 0.31023386 0 59
0.29771563 -1.1133662 0.29808873 0 59
0.29537663 -1.0525839 0.28276616 0 59
0.29702595 -1.0105287 0.27242902 0 59
0.3414498 -1.1109892 0.30062142 0 59
0.34825733 -1.0854293 0.29484165 0 59
0.34612799 -1.034875 0.28224406 0 59
0.49081874 -1.4096208 0.38606626 0 59
0.5102939 -1.4095013 0.38772279 0 59
0.526712 -1.4007963 0.38708055 0 59
0.55045283 -1.4110225 0.39174712 0 59
0.56946129 -1.408354 0.39292064 0 59
0.5933699 -1.417092 0.39736405 0 59
0.60263121 -1.3909521 0.39208248 0 59
0.63038689 -1.407322 0.39885169 0 59
0.65367788 -1.412505 0.40256822 0 59
0.63821316 -1.3357482 0.3829 0 59
0.65076566 -1.3200452 0.38066372 0 59
0.67219973 -1.3222764 0.38366169 0 59
0.68731517 -1.3118273 0.38305315 0 59
0.69826829 -1.2937824 0.38026246 0 59
0.72479481 -1.3043028 0.38594493 0 59
0.73089755 -1.2780175 0.38079768 0 59
0.75578785 -1.2846253 0.38550648 0 59
0.76939136 -1.2717072 0.38443992 0 59
0.78113264 -1.2559817 0.38256079 0 59
0.79902083 -1.2502006 0.38376358 0 59
0.92294389 -1.4057044 0.43494806 0 59
0.95449299 -1.4155086 0.44157988 0 59
0.84986359 -1.227509 0.38616267 0 59
0.86094511 -1.2114128 0.38440034 0 59
0.85812896 -1.1765418 0.37665504 0 59
0.87797266 -1.1731739 0.37900439 0 59
0.89240944 -1.1623921 0.37903768 0 59
0.92223686 -1.1711453 0.38556066 0 59
0.91382158 -1.1315526 0.37619695 0 59
0.93785 -1.1325296 0.38032708 0 59
0.96407926 -1.1354879 0.3852725 0 59
0.97296667 -1.1178026 0.38330227 0 59
0.98354113 -1.1022853 0.38209951 0 59
1.0075979 -1.1016742 0.38615343 0 59
1.0245596 -1.0929272 0.38747412 0 59
1.0424187 -1.084929 0.38915345 0 59
0.74133343 -0.75281507 0.27327651 0 59
0.72209328 -0.71546376 0.26292109 0 59
0.72800583 -0.70379543 0.26190305 0 59
0.73157674 -0.69004875 0.26011544 0 59
0.73323256 -0.67476815 0.25773457 0 59
0.73371613 -0.65873677 0.25503802 0 59
0.73315841 -0.64213175 0.2520805 0 59
0.73133469 -0.62481248 0.24879301 0 59
0.73186773 -0.60986161 0.24640457 0 59
0.75418401 -0.61290371 0.25136161 0 59
0.74448735 -0.58997333 0.24569336 0 59
0.7296797 -0.5637728 0.23850074 0 59
0.7458781 -0.56177926 0.24151914 0 59
0.74813759 -0.54919529 0.24004592 0 59
0.74213076 -0.53086823 0.23600625 0 59
0.7400279 -0.51572794 0.23330317 0 59
0.73171997 -0.49668419 0.22874123 0 59
0.72893721 -0.48181039 0.22600216 0 59
0.749632 -0.48235095 0.23056209 0 59
0.73741931 -0.4617714 0.22504243 0 59
0.74547756 -0.45415372 0.22578029 0 59
0.73066694 -0.43290338 0.21966584 0 59
0.7523464 -0.43333969 0.22456455 0 59
0.75359178 -0.42180306 0.22337124 0 59
0.75301468 -0.40940285 0.22169124 0 59
0.74090797 -0.39109543 0.21669477 0 59
0.72770107 -0.37275639 0.21147557 0 59
0.73177058 -0.36355281 0.21134308 0 59
0.7432102 -0.35791084 0.21335977 0 59
0.73935062 -0.34491825 0.21101823 0 59
0.75198299 -0.33961651 0.21341559 0 59
0.75100482 -0.32811785 0.21197692 0 59
0.74092627 -0.31292254 0.20803034 0 59
0.75593048 -0.30836275 0.21116252 0 59
0.74932027 -0.29497266 0.20828705 0 59
0.73824966 -0.2801806 0.20423669 0 59
0.73705614 -0.26940718 0.20297466 0 59
0.74624681 -0.26241091 0.20460159 0 59
0.79934388 -0.27008507 0.21823238 0 59
0.79030627 -0.25624877 0.21488847 0 59
0.79442877 -0.24683267 0.21516787 0 59
0.79854518 -0.23738542 0.21547589 0 59
0.78451753 -0.22275433 0.21093568 0 59
0.75271779 -0.203758 0.20169666 0 59
0.74937284 -0.19299549 0.20014933 0 59
0.75327545 -0.18415475 0.20057169 0 59
0.75604522 -0.17500909 0.20072101 0 59
0.7612896 -0.16638827 0.20155491 0 59
0.70332545 -0.1446823 0.18572357 0 59
0.74735874 -0.14418589 0.19686817 0 59
0.81300354 -0.14650592 0.21366951 0 59
0.86594582 -0.14507674 0.22709753 0 59
0.71254843 -0.11038797 0.1864984 0 59
0.72908413 -0.10378682 0.19047795 0 59
0.79343325 -0.10301032 0.20694299 0 59
0.87985098 -0.10324592 0.22913399 0 59
0.97894961 -0.10268883 0.25459352 0 59
0.79241997 -0.073283948 0.20583321 0 59
0.91253865 -0.073088542 0.236783 0 59
1.0715485 -0.072576471 0.27778986 0 59
2.0105441 -0.11135975 0.52082217 0 59
1.5870371 0.087902598 0.41111463 0 59
1.5674734 0.10616571 0.40635422 0 59
0.16428244 -1.8379575 0.49544445 0 60
0.17505334 -1.7197245 0.46411839 0 60
0.19076499 -1.669994 0.45129609 0 60
0.3445226 -1.7012528 0.46604514 0 60
0.29295537 -1.3604077 0.37363181 0 60
0.29341072 -1.2855097 0.35402542 0 60
0.29536206 -1.2244604 0.33818731 0 60
0.29510385 -1.1605979 0.32152686 0 60
0.29526779 -1.104212 0.30688861 0 60
0.29594934 -1.0546247 0.2940962 0 60
0.29290909 -0.99652243 0.27887693 0 60
0.34338993 -1.1173018 0.313835 0 60
0.34413427 -1.0725788 0.30243865 0 60
0.3454622 -1.0328844 0.29242158 0 60
0.48990005 -1.4069822 0.40000826 0 60
0.50866652 -1.4050063 0.40119442 0 60
0.53229856 -1.4156538 0.40607312 0 60
0.55215436 -1.4153843 0.40791249 0 60
0.57297605 -1.4170465 0.41039106 0 60
0.58397788 -1.3946618 0.40595719 0 60
0.61045492 -1.4090103 0.41228753 0 60
0.63211328 -1.4111761 0.41516423 0 60
0.6517449 -1.4083283 0.41665268 0 60
0.6699875 -1.4022503 0.41726029 0 60
0.69364268 -1.4070191 0.42118555 0 60
0.67308217 -1.3240122 0.39878514 0 60
0.69310039 -1.3228692 0.40097755 0 60
0.70592219 -1.3079637 0.39906049 0 60
0.72456568 -1.3038906 0.40050581 0 60
0.73754406 -1.2896392 0.39888391 0 60
0.75235778 -1.2787951 0.39836115 0 60
0.77263623 -1.2770705 0.4007532 0 60
0.78617746 -1.2640933 0.39968425 0 60
0.89352065 -1.3980613 0.44548291 0 60
0.91883028 -1.399439 0.44948804 0 60
0.94577491 -1.4025798 0.45419788 0 60
0.95861316 -1.3845825 0.45215282 0 60
0.87770349 -1.2349931 0.40679622 0 60
0.86143863 -1.1810795 0.392497 0 60
0.88553679 -1.1832813 0.39681733 0 60
0.90145773 -1.1741778 0.3974517 0 60
0.90990996 -1.1554915 0.39488393 0 60
0.92947799 -1.1509393 0.39720416 0 60
0.95288116 -1.150681 0.40112838 0 60
0.96831912 -1.1404816 0.40169328 0 60
0.98362243 -1.1300446 0.40224686 0 60
1.0032475 -1.1243707 0.40458784 0 60
1.0041753 -1.0979321 0.39948729 0 60
1.0330956 -1.1020328 0.40557089 0 60
1.0468681 -1.0895598 0.4056873 0 60
0.7266795 -0.73793417 0.2780689 0 60
0.71832514 -0.71173024 0.27150258 0 60
0.72746921 -0.70327663 0.27166963 0 60
0.72822499 -0.68688726 0.26877734 0 60
0.73732549 -0.67853475 0.26903635 0 60
0.7312544 -0.65652657 0.26385549 0 60
0.71223247 -0.62380385 0.25420493 0 60
0.73453325 -0.62754518 0.25939062 0 60
0.72154379 -0.60125875 0.25217363 0 60
0.74424881 -0.60482967 0.2574901 0 60
0.73487389 -0.58235514 0.25175014 0 60
0.72879958 -0.56309283 0.2472785 0 60
0.73310661 -0.55216008 0.24641755 0 60
0.73363715 -0.53855079 0.24435148 0 60
0.71973491 -0.51484782 0.23759452 0 60
0.7277168 -0.50714827 0.23815282 0 60
0.73903823 -0.50165176 0.239821 0 60
0.73873907 -0.48828921 0.23775756 0 60
0.74328709 -0.4782683 0.2373106 0 60
0.75619733 -0.47353023 0.23955534 0 60
0.74134356 -0.45163527 0.23307291 0 60
0.75060487 -0.44471613 0.23424764 0 60
0.74564594 -0.42948034 0.23103449 0 60
0.74882358 -0.41913417 0.23040473 0 60
0.74479371 -0.40493321 0.22761552 0 60
0.7445659 -0.39302629 0.22605185 0 60
0.74199039 -0.3800759 0.22383408 0 60
0.74811077 -0.37167084 0.22428475 0 60
0.74479789 -0.35867542 0.22195251 0 60
0.73604274 -0.34337509 0.21806872 0 60
0.74382854 -0.33593372 0.21913502 0 60
0.73208052 -0.31984973 0.2144991 0 60
0.73746985 -0.31146276 0.21493976 0 60
0.74738008 -0.30487484 0.21671915 0 60
0.73726088 -0.29022548 0.21273394 0 60
0.74553365 -0.28294501 0.2141009 0 60
0.74029171 -0.27058986 0.21162401 0 60
0.75713778 -0.2662406 0.21548755 0 60
0.74668455 -0.25229236 0.21161355 0 60
0.74491942 -0.24153255 0.2102557 0 60
0.75084001 -0.23328944 0.21110116 0 60
0.74184436 -0.22052984 0.20779389 0 60
0.76512307 -0.21724752 0.21354994 0 60
0.73115236 -0.19792031 0.20337389 0 60
0.7455278 -0.19200523 0.20670016 0 60
0.76118463 -0.18608832 0.21039075 0 60
0.74947613 -0.17348848 0.20654927 0 60
0.76470071 -0.16713381 0.21016276 0 60
0.71229124 -0.14652668 0.19524913 0 60
0.76089764 -0.1467979 0.20806229 0 60
0.79519725 -0.14329717 0.21694307 0 60
0.86276972 -0.14454463 0.23487531 0 60
0.70961839 -0.10993405 0.19279972 0 60
0.7275188 -0.10356399 0.19730225 0 60
0.79922068 -0.1037617 0.21638535 0 60
0.88339329 -0.1036616 0.23881152 0 60
0.97073549 -0.1018272 0.26206481 0 60
0.78991687 -0.073052458 0.21299146 0 60
0.91571873 -0.073343247 0.24665058 0 60
1.0813566 -0.073240787 0.29100087 0 60
1.9996271 -0.11075508 0.53770697 0 60
1.5762334 0.12624627 0.42456147 0 60
0.16359079 -1.8302195 0.51153511 0 61
0.18597759 -1.8270444 0.51124817 0 61
0.18958177 -1.6596358 0.46502066 0 61
0.34252644 -1.6913959 0.48041567 0 61
0.2972241 -1.3802305 0.39304221 0 61
0.29908684 -1.3103782 0.37416965 0 61
0.29845655 -1.237289 0.35432065 0 61
0.29945236 -1.1776999 0.33828512 0 61
0.29760253 -1.1129433 0.3207112 0 61
0.29394963 -1.0474987 0.30287105 0 61
0.29587349 -1.0066079 0.29207784 0 61
0.34566101 -1.1246915 0.32754958 0 61
0.34705716 -1.0816886 0.3162446 0 61
0.34519982 -1.0320998 0.30296484 0 61
0.48981759 -1.4067454 0.41467577 0 61
0.51393509 -1.4195588 0.42028394 0 61
0.52377939 -1.392997 0.41429541 0 61
0.54709768 -1.402422 0.41906765 0 61
0.57604629 -1.4246396 0.42779094 0 61
0.58979625 -1.4085573 0.42510736 0 61
0.61133909 -1.411051 0.42809638 0 61
0.63418221 -1.415795 0.43186885 0 61
0.64814079 -1.4005402 0.42961422 0 61
0.67800391 -1.4190282 0.43780968 0 61
0.68957633 -1.3987707 0.43414298 0 61
0.71623683 -1.4089011 0.43998745 0 61
0.73898435 -1.4104444 0.44327366 0 61
0.71067548 -1.3167708 0.41654891 0 61
0.72766846 -1.3094741 0.41703969 0 61
0.74317771 -1.2994901 0.41673887 0 61
0.76346952 -1.2976819 0.41913801 0 61
0.77356023 -1.2785978 0.41601488 0 61
0.79043216 -1.2709343 0.41665235 0 61
0.88114399 -1.378696 0.45549759 0 61
0.91051954 -1.3867812 0.46183294 0 61
0.93628794 -1.3885107 0.46620777 0 61
0.95909327 -1.3852761 0.46904606 0 61
0.88006026 -1.2383093 0.42291614 0 61
0.86606002 -1.1874156 0.40914077 0 61
0.87892467 -1.174446 0.40836495 0 61
0.90670204 -1.1810087 0.41449222 0 61
0.93223828 -1.183846 0.41947952 0 61
0.94599247 -1.1713886 0.41915545 0 61
0.96011013 -1.1594106 0.4190622 0 61
0.97260725 -1.1455321 0.41833705 0 61
0.98992813 -1.1372889 0.41974032 0 61
1.1974943 -1.3420691 0.50071543 0 61
1.2271879 -1.3417667 0.50619429 0 61
1.046841 -1.1166955 0.42610809 0 61
1.0635977 -1.1069716 0.42735586 0 61
0.71728909 -0.72839838 0.28458798 0 61
0.70858359 -0.70207816 0.27768779 0 61
0.72317594 -0.69912612 0.28001624 0 61
0.72098035 -0.68005389 0.27590734 0 61
0.72556549 -0.66771239 0.27449921 0 61
0.72526896 -0.65115279 0.27133733 0 61
0.72859085 -0.63813126 0.26962408 0 61
0.72262341 -0.61737007 0.26458645 0 61
0.73572183 -0.61307329 0.26660201 0 61
0.73904651 -0.60060191 0.26511052 0 61
0.73656929 -0.58369863 0.26162741 0 61
0.73143774 -0.56513113 0.25731695 0 61
0.73863596 -0.55632466 0.25742322 0 61
0.74125701 -0.54414439 0.25598544 0 61
0.73290491 -0.52426869 0.25085586 0 61
0.73243207 -0.51043433 0.24852693 0 61
0.73813641 -0.50103962 0.24835318 0 61
0.73730767 -0.48734307 0.24603948 0 61
0.74496877 -0.47935039 0.2466104 0 61
0.74164367 -0.46441671 0.24360085 0 61
0.73284602 -0.44645846 0.23888989 0 61
0.73127979 -0.43326646 0.23662476 0 61
0.74233365 -0.42757252 0.23848225 0 61
0.75120312 -0.42046607 0.23965256 0 61
0.7276029 -0.39558682 0.23055422 0 61
0.7385388 -0.38984483 0.23248291 0 61
0.74482405 -0.38152742 0.232967 0 61
0.73282862 -0.36407849 0.22779757 0 61
0.74268317 -0.35765702 0.22947639 0 61
0.73904252 -0.34477451 0.22702439 0 61
0.7266829 -0.32819027 0.22197121 0 61
0.74411637 -0.32510826 0.2260582 0 61
0.7472049 -0.31557429 0.22580056 0 61
0.73321384 -0.29909605 0.22044446 0 61
0.75395811 -0.29679838 0.22556701 0 61
0.73920894 -0.28054467 0.22010568 0 61
0.74918735 -0.27384135 0.2220574 0 61
0.74065644 -0.26044509 0.21856311 0 61
0.73359257 -0.24786879 0.21556291 0 61
0.73472017 -0.23822555 0.21501721 0 61
0.74738306 -0.23221534 0.21787092 0 61
0.75433809 -0.22424386 0.219078 0 61
0.73358113 -0.20829155 0.21228978 0 61
0.73552346 -0.19910355 0.21212733 0 61
0.73831815 -0.19014843 0.21224296 0 61
0.74159318 -0.18129876 0.2125275 0 61
0.75321275 -0.17435342 0.21522677 0 61
0.76632237 -0.16748823 0.21836777 0 61
0.70533842 -0.14509641 0.20046651 0 61
0.75697356 -0.14604084 0.21461529 0 61
0.80137146 -0.14440978 0.22668228 0 61
0.87029666 -0.14580566 0.24565329 0 61
0.72250313 -0.11193016 0.20353264 0 61
0.71543831 -0.1018443 0.20117444 0 61
0.79035378 -0.10261051 0.2218684 0 61
0.89526415 -0.10505458 0.25093725 0 61
0.98580039 -0.10340746 0.27593675 0 61
0.80191839 -0.074162371 0.22419389 0 61
0.92185295 -0.073834561 0.25745094 0 61
1.0834281 -0.073381089 0.30230007 0 61
1.9959909 -0.11055367 0.55650359 0 61
1.5819702 0.14630249 0.44227451 0 61
0.16449165 -1.8402983 0.53272259 0 62
0.18925488 -1.8592404 0.53883886 0 62
0.19156314 -1.6769811 0.48666292 0 62
0.34355679 -1.6964837 0.49907088 0 62
0.29431194 -1.3667071 0.40309152 0 62
0.29580852 -1.296015 0.38328567 0 62
0.29585868 -1.2265192 0.36378127 0 62
0.29827544 -1.1730713 0.34899026 0 62
0.29348499 -1.0975449 0.32756993 0 62
0.29387924 -1.0472479 0.31361327 0 62
0.29482824 -1.0030518 0.30144095 0 62
0.34672874 -1.1281655 0.34029621 0 62
0.34749749 -1.0830611 0.32795513 0 62
0.34124637 -1.0202796 0.31019184 0 62
0.48538256 -1.3940082 0.42559752 0 62
0.51035202 -1.4096619 0.43225995 0 62
0.53063506 -1.4112296 0.43470865 0 62
0.54468936 -1.3962486 0.43212441 0 62
0.57016838 -1.4101027 0.43854883 0 62
0.59394222 -1.4184588 0.44338551 0 62
0.61050773 -1.4091321 0.44278327 0 62
0.62780797 -1.4015646 0.44279763 0 62
0.65496987 -1.4152969 0.44964653 0 62
0.67135394 -1.4051101 0.44899899 0 62
0.68987501 -1.3993766 0.44984356 0 62
