# .PCD v0.7 - Point Cloud Data file format
VERSION 0.7
FIELDS x y z intensity ring
SIZE 4 4 4 4 2
TYPE F F F F U
COUNT 1 1 1 1 1
WIDTH 1320
HEIGHT 1
VIEWPOINT 0 0 0 1 0 0 0
POINTS 1320
DATA ascii
-0.13884847 0.95435983 -0.25893575 0 3
-0.15451501 0.97752333 -0.26571587 0 3
-0.1648517 0.96576136 -0.26304981 0 3
-0.17726339 0.96665853 -0.26386791 0 3
-0.43317914 2.2087886 -0.60433936 0 3
-0.46510395 2.2262678 -0.61064041 0 3
-0.49282977 2.2221293 -0.6111213 0 3
-0.52577806 2.2400296 -0.6177755 0 3
-0.54995108 2.2199552 -0.61405772 0 3
-0.57932544 2.2211549 -0.61631346 0 3
-0.61064613 2.2286603 -0.62043262 0 3
-0.63812435 2.2214077 -0.62055111 0 3
-0.66625184 2.2162621 -0.6213553 0 3
-0.69623828 2.2167752 -0.62385225 0 3
-0.72391087 2.2094777 -0.62425649 0 3
-0.7541036 2.2094362 -0.62681723 0 3
-0.78896165 2.2218187 -0.63303459 0 3
-0.81608665 2.2115874 -0.63293082 0 3
-0.85329974 2.2277071 -0.64049858 0 3
-0.85643357 2.1561403 -0.62290281 0 3
-0.87500668 2.1263151 -0.61734807 0 3
-0.89295965 2.0963213 -0.61178148 0 3
-0.89982438 2.0424132 -0.59923297 0 3
-0.90475249 1.9870154 -0.58619928 0 3
-0.90465844 1.9237334 -0.57076883 0 3
-0.91346812 1.8820231 -0.5616836 0 3
-0.91942954 1.8364736 -0.55142194 0 3
-0.91237617 1.7677484 -0.53411472 0 3
-0.92646366 1.7421449 -0.52978086 0 3
-0.9239943 1.6871288 -0.51646668 0 3
-0.92942798 1.6486067 -0.50813437 0 3
-0.95806891 1.651605 -0.51265085 0 3
-0.98441309 1.6499397 -0.51585221 0 3
-1.0130875 1.6515055 -0.52019721 0 3
-1.3042954 2.0687177 -0.65661436 0 3
-1.3067065 2.0171335 -0.6452927 0 3
-1.3130517 1.9733251 -0.63639522 0 3
-1.312732 1.9211993 -0.62474322 0 3
-1.3086538 1.8655663 -0.61183882 0 3
-1.3090763 1.8181996 -0.601538 0 3
-1.3117774 1.7754976 -0.59270209 0 3
-1.3060682 1.7230331 -0.58050555 0 3
-1.3089705 1.6834569 -0.57255149 0 3
-1.322185 1.6579741 -0.5693711 0 3
-1.3474815 1.6477188 -0.57149625 0 3
-1.3489876 1.6087826 -0.56370229 0 3
-1.3642472 1.5869339 -0.56188214 0 3
-1.5151916 1.7192934 -0.61529666 0 3
-6.8923326 7.629549 -2.7605672 0 3
-6.9497337 7.5054708 -2.7463853 0 3
-7.0509763 7.4294453 -2.7500842 0 3
-7.131074 7.3311696 -2.7459571 0 3
-7.2406654 7.2629862 -2.7535591 0 3
-0.99193394 0.97082007 -0.37265548 0 3
-1.0277869 0.98145998 -0.38156208 0 3
-1.0445484 0.97319436 -0.38331315 0 3
-1.0738595 0.97611564 -0.38963524 0 3
-1.0934087 0.96960288 -0.39237273 0 3
-1.1256717 0.97375304 -0.39962339 0 3
-1.1463358 0.96724397 -0.40270653 0 3
-1.160784 0.9552502 -0.40362519 0 3
-1.1757832 0.94358724 -0.40477559 0 3
-1.2022406 0.94075304 -0.40987048 0 3
-1.2309349 0.93903476 -0.415685 0 3
-1.2620043 0.93841535 -0.42224836 0 3
-1.3063291 0.94665593 -0.43315133 0 3
-1.333848 0.94180411 -0.43840292 0 3
-8.3573437 5.7482834 -2.7234147 0 3
-8.3637524 5.6024632 -2.7028494 0 3
-8.3915176 5.4727969 -2.6898711 0 3
-8.4056215 5.335845 -2.6731582 0 3
-8.4263611 5.2047687 -2.6591995 0 3
-8.4290447 5.0643144 -2.6401944 0 3
-8.450757 4.9369712 -2.6277819 0 3
-8.4600973 4.8038888 -2.6121204 0 3
-1.3241626 0.73051476 -0.40604123 0 3
-8.4776812 4.5419149 -2.5822752 0 3
-8.5007343 4.4206147 -2.5725455 0 3
-8.7258291 4.4022231 -2.6240849 0 3
-9.0440464 4.4241099 -2.703217 0 3
-9.2603483 4.3896456 -2.7515273 0 3
-1.4519221 0.66651022 -0.42894197 0 3
-9.3870192 4.1701794 -2.7578535 0 3
-9.4019899 4.0391541 -2.747452 0 3
-9.4469328 3.9215817 -2.7462864 0 3
-9.5447855 3.8253086 -2.7608497 0 3
-9.5885353 3.7066703 -2.760112 0 3
-9.6159039 3.5819819 -2.7551033 0 3
-9.6552677 3.4620612 -2.7539759 0 3
-9.7127275 3.3484685 -2.7584126 0 3
-9.7320652 3.2218072 -2.7524452 0 3
-9.7788715 3.1044192 -2.7546785 0 3
-9.8289719 2.9877992 -2.7582338 0 3
-9.8358755 2.8582675 -2.7501004 0 3
-9.9033222 2.746278 -2.7593076 0 3
-9.9162703 2.6190031 -2.7537344 0 3
-9.9425411 2.4955785 -2.7522998 0 3
-10.004502 2.3807626 -2.7611394 0 3
-10.033147 2.2576008 -2.7611747 0 3
-10.06099 2.1342459 -2.7614059 0 3
-10.05203 2.0035145 -2.7519767 0 3
-10.081954 1.8808966 -2.753629 0 3
-10.149186 1.7645923 -2.7658565 0 3
-10.134287 1.6338928 -2.7561126 0 3
-10.149519 1.5085546 -2.755002 0 3
-10.159533 1.3825897 -2.7528973 0 3
-10.17369 1.2573118 -2.752336 0 3
-10.196364 1.133013 -2.754493 0 3
-10.214066 1.0080056 -2.755718 0 3
-10.228652 0.88259774 -2.7565172 0 3
-10.225346 0.75577492 -2.7529135 0 3
-10.235145 0.63007033 -2.7532575 0 3
-10.243061 0.50422245 -2.753511 0 3
-10.257059 0.37855676 -2.7558143 0 3
-10.27352 0.25272158 -2.7591937 0 3
-10.281328 0.12645134 -2.7606642 0 3
-10.29144 2.7309259e-05 -2.7631702 0 3
-10.675231 -2.8327684e-05 -2.7611375 0 4
-10.669532 -0.1312259 -2.759872 0 4
-10.661486 -0.26226526 -2.7584164 0 4
-10.64629 -0.3929221 -2.7555265 0 4
-10.664589 -0.5249725 -2.7617247 0 4
-10.672411 -0.6569882 -2.7656333 0 4
-10.658531 -0.7877925 -2.764338 0 4
-10.614936 -0.9159289 -2.755744 0 4
-10.636889 -1.0497332 -2.7645853 0 4
-10.613585 -1.1793742 -2.762089 0 4
-10.60483 -1.3105941 -2.7637954 0 4
-10.568637 -1.4382638 -2.7587636 0 4
-10.579127 -1.5724086 -2.7663398 0 4
-10.532732 -1.6981318 -2.7594595 0 4
-10.519322 -1.8289462 -2.7616296 0 4
-10.491276 -1.95726 -2.7603762 0 4
-10.466935 -2.0862112 -2.7605128 0 4
-10.428065 -2.2121139 -2.7572267 0 4
-10.396249 -2.3393037 -2.7562115 0 4
-10.379026 -2.4698877 -2.7594891 0 4
-10.353169 -2.5986462 -2.7609015 0 4
-10.301918 -2.7208571 -2.7559478 0 4
-10.273025 -2.8487997 -2.757381 0 4
-10.234079 -2.973984 -2.7565348 0 4
-10.223069 -3.1075964 -2.7636528 0 4
-10.158211 -3.2248452 -2.7566309 0 4
-10.110705 -3.3471563 -2.7547002 0 4
-10.085869 -3.4771092 -2.7593739 0 4
-10.014359 -3.5908196 -2.7516818 0 4
-9.9797859 -3.71753 -2.7545342 0 4
-9.9435701 -3.8439174 -2.7573762 0 4
-9.8933201 -3.9649925 -2.7567532 0 4
-9.8615599 -4.0937004 -2.7617211 0 4
-9.8245325 -4.2206812 -2.765677 0 4
-9.7321033 -4.323483 -2.754415 0 4
-9.7066183 -4.4558597 -2.7625008 0 4
-9.6276855 -4.5637732 -2.7557995 0 4
-9.5871572 -4.6897855 -2.7604966 0 4
-9.49825 -4.7919135 -2.7516553 0 4
-9.4677935 -4.9235115 -2.7601621 0 4
-9.395052 -5.0333967 -2.7567914 0 4
-9.3218431 -5.1426797 -2.7536569 0 4
-9.2979107 -5.2796235 -2.7655559 0 4
-9.2117767 -5.3815622 -2.7594101 0 4
-9.1437435 -5.4937177 -2.759058 0 4
-9.0711069 -5.603014 -2.7577212 0 4
-8.9896393 -5.7065768 -2.7540786 0 4
-8.9319839 -5.8252797 -2.7581515 0 4
-8.8539181 -5.9308009 -2.7563567 0 4
-8.7751303 -6.0356421 -2.7547252 0 4
-8.6997995 -6.1427588 -2.754581 0 4
-8.6308699 -6.2545218 -2.7568989 0 4
-8.5483608 -6.3564868 -2.7553022 0 4
-8.4878874 -6.4750957 -2.761265 0 4
-8.3653183 -6.5458598 -2.7473683 0 4
-8.2987461 -6.6598935 -2.752192 0 4
-8.2321568 -6.7745333 -2.7575266 0 4
-8.1501732 -6.876873 -2.7581818 0 4
-8.0381975 -6.9533768 -2.7490146 0 4
-7.9602499 -7.058917 -2.7518339 0 4
-7.9093843 -7.1894636 -2.7646022 0 4
-7.7810955 -7.2495613 -2.7507117 0 4
-7.7098813 -7.3623633 -2.7573321 0 4
-7.5936594 -7.432024 -2.7482426 0 4
-7.53408 -7.5573049 -2.7601032 0 4
-7.4172878 -7.6254144 -2.7514596 0 4
-7.3439436 -7.7381387 -2.7593408 0 4
-7.2228022 -7.800375 -2.749655 0 4
-7.1557641 -7.9211583 -2.7610059 0 4
-7.0394788 -7.9877219 -2.7538276 0 4
-6.9182792 -8.0475531 -2.7449186 0 4
-6.8552594 -8.1754808 -2.7595925 0 4
-6.7390924 -8.2406549 -2.753412 0 4
-6.6244473 -8.3068266 -2.7480969 0 4
-6.5482278 -8.4216261 -2.7592289 0 4
-6.4414616 -8.4979115 -2.7580628 0 4
-6.3282609 -8.5653343 -2.754482 0 4
-6.2094731 -8.6244488 -2.7487299 0 4
-6.0896692 -8.6811972 -2.7427433 0 4
-6.0208616 -8.8116045 -2.7603447 0 4
-5.9034715 -8.872056 -2.7563334 0 4
-5.796113 -8.9473286 -2.7573678 0 4
-5.676477 -9.0033493 -2.7529132 0 4
-5.5640244 -9.0703087 -2.752259 0 4
-5.4576778 -9.147419 -2.7550852 0 4
-5.3389511 -9.2037621 -2.752074 0 4
-5.2273016 -9.2721157 -2.7530847 0 4
-5.1054702 -9.3221197 -2.7490835 0 4
-4.994 -9.3908396 -2.7510316 0 4
-4.8865705 -9.4678345 -2.7557764 0 4
-4.7698746 -9.5273733 -2.755826 0 4
-4.6503067 -9.5810509 -2.7546041 0 4
-4.5167279 -9.6047077 -2.74523 0 4
-4.3932548 -9.6484556 -2.7420862 0 4
-4.281858 -9.7189226 -2.7469416 0 4
-4.1737695 -9.7983847 -2.7546866 0 4
-4.0554938 -9.8550768 -2.7563965 0 4
-3.9140477 -9.8539305 -2.7424073 0 4
-3.7996233 -9.9196653 -2.7474911 0 4
-3.6842034 -9.9841576 -2.752598 0 4
-3.5497191 -9.9964714 -2.7437515 0 4
-3.4318223 -10.054841 -2.747982 0 4
-3.3169315 -10.123741 -2.7554572 0 4
-3.1744702 -10.107296 -2.7401497 0 4
-3.0578873 -10.171948 -2.7472758 0 4
-2.9230342 -10.175526 -2.7383273 0 4
-2.8065565 -10.243021 -2.7469962 0 4
-2.6892307 -10.310609 -2.7560451 0 4
-2.5563898 -10.319228 -2.7497387 0 4
-2.4219317 -10.31842 -2.7413805 0 4
-2.3033226 -10.385494 -2.7514679 0 4
-2.1700315 -10.387079 -2.7446108 0 4
-2.0509539 -10.457852 -2.7564394 0 4
-1.9171019 -10.454402 -2.7491088 0 4
-1.7821063 -10.440228 -2.7394121 0 4
-1.6524357 -10.453964 -2.7374775 0 4
-1.5324259 -10.532962 -2.7530215 0 4
-1.3985515 -10.519041 -2.7446809 0 4
-1.2682198 -10.528065 -2.7427588 0 4
-1.1380228 -10.536818 -2.7411861 0 4
-1.0071188 -10.536809 -2.7377553 0 4
-0.87721729 -10.545155 -2.7369142 0 4
-0.7466501 -10.543247 -2.7338295 0 4
-0.61773396 -10.564889 -2.7372644 0 4
-0.48776281 -10.571178 -2.737133 0 4
-0.35793129 -10.581807 -2.7385387 0 4
-0.22792779 -10.591571 -2.740133 0 4
-0.097768322 -10.602993 -2.7425697 0 4
0.03259258 -10.598181 -2.7412214 0 4
0.16317041 -10.614538 -2.7457635 0 4
0.29280892 -10.58063 -2.7377167 0 4
0.42333123 -10.587481 -2.740629 0 4
0.5549528 -10.609671 -2.7479315 0 4
0.68302327 -10.565859 -2.7385526 0 4
0.81544864 -10.58996 -2.7471905 0 4
0.94257069 -10.545283 -2.7384005 0 4
1.0746515 -10.55738 -2.7447655 0 4
1.2028888 -10.530324 -2.7413697 0 4
1.3312613 -10.506745 -2.7392859 0 4
1.4636714 -10.513463 -2.7455223 0 4
1.5927703 -10.494282 -2.7454202 0 4
1.7180182 -10.451611 -2.7395766 0 4
1.847335 -10.434998 -2.7409689 0 4
1.9764668 -10.416594 -2.7423115 0 4
2.1046183 -10.392607 -2.7426023 0 4
2.2333021 -10.370867 -2.7439048 0 4
2.3558974 -10.321807 -2.7383823 0 4
2.4844143 -10.29945 -2.7403486 0 4
2.6145985 -10.282812 -2.7442684 0 4
2.7325678 -10.218975 -2.7359922 0 4
2.8657146 -10.212064 -2.7433689 0 4
2.9889655 -10.168927 -2.741447 0 4
3.1052303 -10.103616 -2.7339268 0 4
3.2302408 -10.067838 -2.7347867 0 4
3.3610649 -10.049121 -2.7407222 0 4
3.4814525 -9.9986553 -2.7384269 0 4
3.6096539 -9.970356 -2.7426255 0 4
3.7195816 -9.8922682 -2.73352 0 4
3.8504965 -9.8703051 -2.7403274 0 4
3.9680014 -9.8133984 -2.7378676 0 4
4.0825396 -9.7499619 -2.7339683 0 4
4.2028112 -9.7006416 -2.7344232 0 4
4.3221574 -9.6491013 -2.7346694 0 4
4.4486194 -9.6128349 -2.7396872 0 4
4.5555849 -9.5346117 -2.7331519 0 4
4.6822071 -9.4976206 -2.7388451 0 4
4.7862368 -9.4149504 -2.7317708 0 4
4.9114199 -9.3740616 -2.7372231 0 4
5.0281677 -9.316411 -2.738236 0 4
5.1377501 -9.2456264 -2.7357931 0 4
5.2482886 -9.1769419 -2.7343585 0 4
5.3678775 -9.1238708 -2.7380056 0 4
5.4723325 -9.0450773 -2.7343471 0 4
5.5960546 -8.9978857 -2.7406754 0 4
5.6953635 -8.9113417 -2.7354395 0 4
5.7932248 -8.8234625 -2.7301245 0 4
5.9132891 -8.7693806 -2.7356822 0 4
6.030632 -8.7104034 -2.7402103 0 4
6.1244583 -8.6175613 -2.7344878 0 4
6.2402353 -8.5557041 -2.739001 0 4
6.3366232 -8.4671898 -2.7354019 0 4
6.4492068 -8.4003 -2.7392049 0 4
6.5333462 -8.2966728 -2.7314038 0 4
6.644958 -8.2282133 -2.7355592 0 4
6.7318416 -8.1292419 -2.729969 0 4
6.84516 -8.0621967 -2.7355134 0 4
6.9314857 -7.9633074 -2.7306736 0 4
7.0270605 -7.8754454 -2.7299685 0 4
7.1331463 -7.7991467 -2.7337184 0 4
7.2294555 -7.7118683 -2.7340791 0 4
7.3304787 -7.6294188 -2.7365983 0 4
7.3999963 -7.514606 -2.7278483 0 4
7.5012393 -7.4323711 -2.7312734 0 4
7.6163225 -7.3630352 -2.7400026 0 4
7.6839166 -7.2477388 -2.7320516 0 4
7.7725539 -7.1528082 -2.7320881 0 4
7.8293471 -7.0292563 -2.721463 0 4
7.9618263 -6.9733105 -2.7375 0 4
8.0482159 -6.8759575 -2.7379255 0 4
8.1234961 -6.769268 -2.7350116 0 4
8.2197733 -6.6799741 -2.7395642 0 4
8.2610321 -6.5465031 -2.7262795 0 4
8.3480787 -6.4499803 -2.7286258 0 4
8.438138 -6.3554239 -2.7323124 0 4
8.5287132 -6.2607856 -2.7365055 0 4
8.5782375 -6.1362686 -2.7279794 0 4
8.6747074 -6.0454321 -2.7348111 0 4
8.7202978 -5.919251 -2.7260313 0 4
8.815937 -5.8271279 -2.7333231 0 4
8.867424 -5.7057467 -2.7273271 0 4
8.9590626 -5.6101584 -2.7340879 0 4
9.0296888 -5.5009928 -2.7347915 0 4
9.0815411 -5.3806043 -2.7302513 0 4
9.1393318 -5.2641115 -2.7279589 0 4
9.2329464 -5.1678972 -2.7367268 0 4
9.2830858 -5.0470753 -2.7329862 0 4
9.3557129 -4.9385033 -2.7362833 0 4
9.4035921 -4.8168807 -2.7327566 0 4
9.4579973 -4.6988521 -2.7315698 0 4
9.515172 -4.5822606 -2.7316024 0 4
9.5742292 -4.4665227 -2.7325828 0 4
9.6415033 -4.354372 -2.7362947 0 4
9.6945276 -4.2355886 -2.7363551 0 4
9.7057991 -4.099144 -2.7251034 0 4
9.7728586 -3.9865909 -2.7299619 0 4
9.8198471 -3.8656189 -2.7296033 0 4
9.8763628 -3.7482784 -2.7322946 0 4
9.8826265 -3.6122766 -2.7215333 0 4
9.933979 -3.4931934 -2.7236402 0 4
10.007839 -3.3814833 -2.7322841 0 4
10.008593 -3.2451844 -2.7213895 0 4
10.078442 -3.1314182 -2.7297058 0 4
10.139016 -3.0140495 -2.7358673 0 4
10.126534 -2.8753076 -2.7227526 0 4
10.207825 -2.7632213 -2.7352669 0 4
10.190453 -2.6244762 -2.7217588 0 4
10.268225 -2.5102932 -2.7340798 0 4
10.279914 -2.379591 -2.7291949 0 4
10.331244 -2.258008 -2.7352443 0 4
10.337423 -2.1265295 -2.7297509 0 4
10.336334 -1.9941605 -2.7227821 0 4
10.409939 -1.8759052 -2.7358878 0 4
10.410015 -1.7440479 -2.7300653 0 4
10.414196 -1.6133668 -2.7257528 0 4
10.415674 -1.4826953 -2.7211621 0 4
10.472775 -1.3596655 -2.7315054 0 4
10.486567 -1.2305439 -2.7309496 0 4
10.476473 -1.0989501 -2.724596 0 4
10.482604 -0.9694438 -2.7228844 0 4
10.544765 -0.84456861 -2.7361264 0 4
10.564469 -0.71553642 -2.7387493 0 4
10.5514 -0.58441955 -2.7332916 0 4
10.552393 -0.45440787 -2.731895 0 4
10.550809 -0.32443014 -2.7302456 0 4
10.548675 -0.19457945 -2.7288678 0 4
10.534559 -0.064766504 -2.7248042 0 4
10.538459 0.06479048 -2.7258129 0 4
10.554554 0.19468792 -2.7303886 0 4
10.550832 0.32443085 -2.7302516 0 4
10.547249 0.45418632 -2.7305629 0 4
10.528597 0.58315653 -2.7273846 0 4
10.540453 0.7139098 -2.7325232 0 4
10.5541 0.84531629 -2.7385488 0 4
10.477397 0.96896225 -2.7215321 0 4
10.494661 1.1008581 -2.7293262 0 4
10.480536 1.2298362 -2.7293792 0 4
10.478601 1.3604219 -2.7330251 0 4
10.398927 1.4803113 -2.7167866 0 4
10.410506 1.6127952 -2.724787 0 4
10.413495 1.7446311 -2.730978 0 4
10.402347 1.8745371 -2.7338924 0 4
10.352816 1.9973403 -2.7271235 0 4
10.349357 2.1289842 -2.7329018 0 4
10.336206 2.2590923 -2.736558 0 4
10.2811 2.3798654 -2.7295098 0 4
10.260679 2.5084486 -2.7320707 0 4
10.202991 2.6277053 -2.7251074 0 4
10.205772 2.7626657 -2.7347171 0 4
10.141743 2.879626 -2.7268419 0 4
10.140748 3.0145643 -2.7363343 0 4
10.068231 3.1282456 -2.7269402 0 4
10.004776 3.2439468 -2.7203517 0 4
10.011432 3.3826971 -2.7332647 0 4
9.9455633 3.497267 -2.7268164 0 4
9.882268 3.6121457 -2.7214346 0 4
9.897747 3.7563941 -2.7382107 0 4
9.8082867 3.8610682 -2.7263899 0 4
9.7475605 3.9762712 -2.7228951 0 4
9.7053261 4.0989442 -2.7249706 0 4
9.6984081 4.2372842 -2.7374506 0 4
9.6439228 4.3554645 -2.7369816 0 4
9.5668249 4.4630685 -2.7304695 0 4
9.5174532 4.5833592 -2.7322574 0 4
9.4577494 4.698729 -2.731498 0 4
9.4085884 4.8194399 -2.7342086 0 4
9.3575888 4.9394932 -2.7368317 0 4
9.2849474 5.0480871 -2.7335343 0 4
9.234704 5.1688809 -2.7372475 0 4
9.1354246 5.2618608 -2.7267926 0 4
9.1040955 5.3939672 -2.7370319 0 4
9.0302649 5.5013442 -2.734966 0 4
8.9869738 5.6276364 -2.7426059 0 4
8.8750086 5.7106271 -2.72966 0 4
8.8253088 5.8333225 -2.7362287 0 4
8.7171659 5.9171247 -2.7250524 0 4
8.6742153 6.0450897 -2.7346561 0 4
8.5816116 6.1386828 -2.7290528 0 4
8.5236588 6.2570748 -2.7348838 0 4
8.4312325 6.3502221 -2.7300761 0 4
8.3339853 6.4390917 -2.7240193 0 4
8.2579536 6.5440636 -2.7252636 0 4
8.2128019 6.6743083 -2.7372406 0 4
8.1253767 6.7708349 -2.7356446 0 4
8.0598907 6.885931 -2.7418971 0 4
7.9682779 6.9789615 -2.7397182 0 4
7.8448448 7.0431705 -2.72685 0 4
7.780766 7.1603656 -2.7349746 0 4
7.6769552 7.2411723 -2.7295763 0 4
7.6029367 7.3500948 -2.7351873 0 4
7.4975438 7.4287095 -2.7299278 0 4
7.398716 7.5133057 -2.7273765 0 4
7.324851 7.6235614 -2.7344973 0 4
7.2189989 7.7007141 -2.7301245 0 4
7.1267848 7.7921915 -2.7312803 0 4
7.0399394 7.8898792 -2.734972 0 4
6.946382 7.9804215 -2.736542 0 4
6.8466229 8.06392 -2.7360983 0 4
6.7301583 8.1272097 -2.7292867 0 4
6.6395793 8.2215528 -2.733345 0 4
6.5268178 8.2883825 -2.7286747 0 4
6.448864 8.3998537 -2.7390592 0 4
6.336215 8.4666443 -2.7352257 0 4
6.2392702 8.5543804 -2.7385774 0 4
6.1277232 8.6221552 -2.7359455 0 4
6.0153904 8.6883898 -2.733285 0 4
5.9172635 8.7752743 -2.7375207 0 4
5.804769 8.8410454 -2.7355647 0 4
5.700006 8.9186049 -2.7376692 0 4
5.5922861 8.9918261 -2.7388299 0 4
5.4768529 9.0525494 -2.7366059 0 4
5.3676367 9.1234617 -2.7378829 0 4
5.2537441 9.1864815 -2.737201 0 4
5.140481 9.2505407 -2.7372472 0 4
5.0321016 9.3237 -2.7403784 0 4
4.9008613 9.3539095 -2.7313385 0 4
4.7828398 9.4082689 -2.7298322 0 4
4.6738796 9.4807281 -2.733974 0 4
4.563549 9.55128 -2.7379298 0 4
4.4529734 9.6222439 -2.7423687 0 4
4.3228745 9.6507025 -2.7351232 0 4
4.2054124 9.706646 -2.7361155 0 4
4.0808339 9.7458878 -2.732826 0 4
3.9762371 9.8337669 -2.7435503 0 4
3.8493984 9.8674898 -2.7395458 0 4
3.7162044 9.8832855 -2.7310379 0 4
3.6055217 9.9589424 -2.7394857 0 4
3.4833231 10.004028 -2.7398984 0 4
3.3547189 10.030148 -2.7355473 0 4
3.2338905 10.079212 -2.7378767 0 4
3.1127937 10.128224 -2.7405858 0 4
2.9868989 10.161897 -2.7395515 0 4
2.8659816 10.213015 -2.7436244 0 4
2.7328103 10.219883 -2.7362351 0 4
0.29273805 1.1512935 -0.30725628 0 4
0.24413905 1.0121089 -0.26928926 0 4
0.22002402 0.96398312 -0.25574535 0 4
0.21247579 0.98668164 -0.2610544 0 4
0.1979216 0.97733706 -0.25791863 0 4
0.18037593 0.95063722 -0.25026831 0 4
0.16817856 0.94998622 -0.24953364 0 4
0.15900469 0.9673093 -0.25355116 0 4
0.33500403 2.2072403 -0.57743847 0 4
0.30770683 2.2102394 -0.57718962 0 4
0.28882557 2.2795048 -0.5943054 0 4
1.2023168 10.525315 -2.7400658 0 4
0.10425186 1.0241706 -0.26626951 0 4
0.08985395 1.0052673 -0.2610479 0 4
0.81477755 10.581245 -2.7449298 0 4
0.68401462 10.581194 -2.7425272 0 4
0.55514723 10.613388 -2.7488945 0 4
0.079875164 1.9976716 -0.51710856 0 4
0.051973768 1.8780684 -0.48594642 0 4
0.029692939 1.9315808 -0.49966037 0 4
0.0064392951 2.0938759 -0.54158139 0 4
-0.097747386 10.600722 -2.7419825 0 4
-0.22773694 10.582703 -2.7378385 0 4
-0.35766658 10.573982 -2.7365134 0 4
-0.117161 2.5392051 -0.65746146 0 4
-0.13277048 2.2707274 -0.58832437 0 4
-0.16029023 2.2634156 -0.58689624 0 4
-0.1845718 2.2187643 -0.57586324 0 4
-0.21220464 2.220155 -0.57685781 0 4
-0.10273419 0.95120358 -0.24745861 0 4
-0.11590113 0.96214765 -0.25065756 0 4
-0.12802482 0.96292365 -0.25125083 0 4
-0.13810115 0.94922316 -0.24810037 0 4
-0.15304565 0.96822757 -0.25354031 0 4
-0.16601838 0.97259617 -0.25519955 0 4
-0.17782307 0.96971053 -0.25499687 0 4
-0.43719554 2.2292683 -0.58758169 0 4
-0.46429774 2.2224088 -0.58723414 0 4
-0.49385488 2.2267516 -0.58994162 0 4
-0.52189821 2.2234998 -0.59073573 0 4
-0.55096108 2.2240319 -0.59263223 0 4
-0.57878929 2.2190995 -0.59316945 0 4
-0.61082625 2.2293177 -0.59786338 0 4
-0.63273662 2.2026522 -0.59275389 0 4
-0.66647857 2.2170162 -0.59877962 0 4
-0.69664425 2.2180679 -0.60133171 0 4
-0.72633767 2.2168849 -0.60338676 0 4
-0.75503081 2.2121527 -0.60458004 0 4
-0.78540146 2.2117927 -0.60707521 0 4
-0.81591499 2.211122 -0.60959876 0 4
-0.84763509 2.2129185 -0.6129213 0 4
-0.88358867 2.2245057 -0.61909312 0 4
-0.87952852 2.1373034 -0.59778893 0 4
-0.89757818 2.1071637 -0.59240127 0 4
-0.91069287 2.0670824 -0.58423704 0 4
-0.90925479 1.9969032 -0.56751889 0 4
-0.91548878 1.9467638 -0.55642653 0 4
-0.91330379 1.8816845 -0.54099447 0 4
-0.91596526 1.829554 -0.52920485 0 4
-0.92169535 1.7858045 -0.51978916 0 4
-0.93811613 1.7640566 -0.51677758 0 4
-0.92420065 1.6875056 -0.49764368 0 4
-0.92807871 1.6462133 -0.4887951 0 4
-0.96266681 1.6595312 -0.49622673 0 4
-0.97810715 1.6393706 -0.49375734 0 4
-1.010408 1.6471375 -0.49980098 0 4
-1.3221923 2.0971034 -0.64122176 0 4
-1.3079345 2.0190291 -0.62221992 0 4
-1.3032613 1.9586116 -0.60849327 0 4
-1.3069276 1.9127045 -0.59917849 0 4
-1.3100665 1.8675799 -0.5900445 0 4
-1.3118281 1.8220217 -0.58070326 0 4
-1.311532 1.7751654 -0.57086635 0 4
-1.3151339 1.7349932 -0.56310546 0 4
-1.3077331 1.6818656 -0.55103987 0 4
-1.3228335 1.6587873 -0.54876649 0 4
-1.3440424 1.6435136 -0.54913962 0 4
-1.3393637 1.5973054 -0.5391624 0 4
-1.3544459 1.5755327 -0.53739429 0 4
-7.0483446 7.9977822 -2.7572958 0 4
-7.1449056 7.9091377 -2.7568161 0 4
-7.2304411 7.8086247 -2.7525632 0 4
-7.3392606 7.7332039 -2.757581 0 4
-7.4059539 7.6137624 -2.7472553 0 4
-7.5247183 7.547915 -2.7566738 0 4
-7.5978012 7.4360776 -2.7497416 0 4
-1.0267054 0.98042732 -0.36718693 0 4
-1.0396703 0.96864951 -0.3675361 0 4
-1.0567081 0.96052539 -0.36935586 0 4
-1.1025709 0.97772771 -0.38115537 0 4
-1.1179314 0.96705729 -0.38232568 0 4
-1.1433244 0.96470296 -0.38692382 0 4
-1.168434 0.96154577 -0.3913905 0 4
-1.1805761 0.94743371 -0.39152572 0 4
-1.2113111 0.9478507 -0.39782324 0 4
-1.2339077 0.94130266 -0.40141276 0 4
-1.2792407 0.95123231 -0.41232404 0 4
-1.3013728 0.94306427 -0.41568848 0 4
-1.3325089 0.9408586 -0.42190668 0 4
-8.3740187 5.7597528 -2.6288068 0 4
-8.3787098 5.6124825 -2.608417 0 4
-8.3928967 5.4736967 -2.5916839 0 4
-8.3961554 5.3298364 -2.572258 0 4
-8.416131 5.1984501 -2.5586009 0 4
-8.4342003 5.0674124 -2.5449586 0 4
-8.452961 4.9382586 -2.5321052 0 4
-8.4546604 4.8008018 -2.5147407 0 4
-1.3336154 0.73572969 -0.39394775 0 4
-1.3070843 0.70027006 -0.38353789 0 4
-8.4887094 4.4143615 -2.4747281 0 4
-8.722928 4.4007592 -2.5270433 0 4
-9.0476732 4.4258842 -2.6051593 0 4
-9.4426889 4.4760799 -2.7028465 0 4
-1.4627233 0.67146856 -0.41629061 0 4
-9.7302923 4.3226786 -2.7539027 0 4
-9.8266964 4.221611 -2.7662861 0 4
-9.862793 4.0942121 -2.7620664 0 4
-9.9058676 3.970021 -2.7602494 0 4
-9.9491177 3.8460617 -2.7589142 0 4
-9.969409 3.7136643 -2.7516701 0 4
-10.023361 3.5940475 -2.7541554 0 4
-10.080909 3.475399 -2.7580168 0 4
-10.103868 3.3448925 -2.7528374 0 4
-10.182748 3.2326345 -2.7632895 0 4
-10.207511 3.1028671 -2.7594469 0 4
-10.217328 2.9691162 -2.752023 0 4
-10.266534 2.8469999 -2.7556388 0 4
-10.296708 2.7194812 -2.754554 0 4
-10.358771 2.6000524 -2.7623954 0 4
-10.381408 2.4704545 -2.7601221 0 4
-10.403951 2.3410368 -2.7582536 0 4
-10.431216 2.2127821 -2.75806 0 4
-10.451389 2.0831127 -2.7564127 0 4
-10.499555 1.9588045 -2.7625544 0 4
-10.528046 1.8304628 -2.7639196 0 4
-10.528984 1.6975274 -2.7584774 0 4
-10.570712 1.5711578 -2.7641392 0 4
-10.589813 1.4411457 -2.7642913 0 4
-10.588659 1.3085957 -2.7595811 0 4
-10.61335 1.1793481 -2.7620277 0 4
-10.636361 1.0496811 -2.7644479 0 4
-10.622897 0.9166159 -2.7578108 0 4
-10.652075 0.78731525 -2.7626634 0 4
-10.668057 0.65672022 -2.7645051 0 4
-10.670276 0.5252524 -2.7631974 0 4
-10.644194 0.39284474 -2.7549839 0 4
-10.673823 0.26256877 -2.7616086 0 4
-10.677147 0.13131957 -2.7618418 0 4
-10.684122 2.8351278e-05 -2.763437 0 4
-11.085228 -2.9415647e-05 -2.7585874 0 5
-11.092732 -0.1364309 -2.7606637 0 5
-11.104331 -0.27315894 -2.7641771 0 5
-11.08824 -0.40923312 -2.7612154 0 5
-11.088508 -0.5458402 -2.7627447 0 5
-11.074835 -0.68176121 -2.7612181 0 5
-11.097068 -0.82020551 -2.7690663 0 5
-11.045897 -0.95311511 -2.7590134 0 5
-11.081671 -1.0936278 -2.7710986 0 5
-11.074203 -1.2305578 -2.7728057 0 5
-11.063553 -1.3672853 -2.7741389 0 5
-11.004012 -1.4975131 -2.7636175 0 5
-10.989803 -1.6334486 -2.7648845 0 5
-10.956288 -1.7664193 -2.7617083 0 5
-10.965818 -1.9065764 -2.7698107 0 5
-10.911579 -2.0356722 -2.7622244 0 5
-10.898131 -2.1721549 -2.7653728 0 5
-10.87987 -2.3079557 -2.767731 0 5
-10.862548 -2.4442277 -2.7707605 0 5
-10.792219 -2.5682149 -2.7606683 0 5
-10.776707 -2.7049539 -2.7649992 0 5
-10.777863 -2.8465595 -2.7740669 0 5
-10.694544 -2.9656906 -2.7617991 0 5
-10.65132 -3.0952325 -2.760257 0 5
-10.64505 -3.2358699 -2.7687345 0 5
-10.587987 -3.3612828 -2.7644336 0 5
-10.543774 -3.4905236 -2.7638874 0 5
-10.514366 -3.6248338 -2.7676537 0 5
-10.480618 -3.7580049 -2.7707245 0 5
-10.406419 -3.8764532 -2.7635009 0 5
-10.384147 -4.0142322 -2.7704852 0 5
-10.302737 -4.1290765 -2.7621026 0 5
-10.252179 -4.2558527 -2.7623694 0 5
-10.220737 -4.390893 -2.7682364 0 5
-10.132079 -4.5011721 -2.759006 0 5
-10.084962 -4.629539 -2.7614684 0 5
-10.023763 -4.7515235 -2.7605007 0 5
-9.9794912 -4.8817053 -2.7646308 0 5
-9.9110489 -5.0001721 -2.7624943 0 5
-9.8195133 -5.1064157 -2.7542744 0 5
-9.8055573 -5.2533245 -2.7682693 0 5
-9.7186375 -5.3615832 -2.7621343 0 5
-9.6420851 -5.4750557 -2.7593029 0 5
-9.5614729 -5.5858564 -2.755682 0 5
-9.4950609 -5.7047954 -2.7565503 0 5
-9.4826498 -5.857214 -2.7736468 0 5
-9.3997126 -5.9668889 -2.7706394 0 5
-9.3359661 -6.0887499 -2.7737088 0 5
-9.2421761 -6.1908755 -2.7682512 0 5
-9.1634598 -6.3027401 -2.7676783 0 5
-9.0398388 -6.382854 -2.7538378 0 5
-8.9835119 -6.5100708 -2.7608564 0 5
-8.8919983 -6.6120129 -2.7575104 0 5
-8.8269987 -6.7337914 -2.7628222 0 5
-8.7489624 -6.8460612 -2.7645369 0 5
-8.6337452 -6.9287372 -2.7548435 0 5
-8.5550346 -7.0402403 -2.7571425 0 5
-8.4936695 -7.1667051 -2.765558 0 5
-8.3602953 -7.2320046 -2.7508783 0 5
-8.3033915 -7.363205 -2.7617376 0 5
-8.2188711 -7.4707804 -2.7639713 0 5
-8.0915604 -7.5388188 -2.7521241 0 5
-8.0375786 -7.6752896 -2.765655 0 5
-7.9049716 -7.7367096 -2.7525527 0 5
-7.8405423 -7.8647122 -2.7635837 0 5
-7.7152829 -7.9317708 -2.7536025 0 5
-7.6349659 -8.0447817 -2.7600341 0 5
-7.5226469 -8.124197 -2.755336 0 5
-7.446413 -8.2428951 -2.7643294 0 5
-7.3315501 -8.3191366 -2.7594559 0 5
-7.2171135 -8.3951664 -2.7550299 0 5
-7.1422811 -8.5177784 -2.766237 0 5
-7.0269608 -8.5926638 -2.7622864 0 5
-6.9111495 -8.6663408 -2.7584434 0 5
-6.7832217 -8.7238503 -2.7499914 0 5
-6.7179127 -8.8626204 -2.7674866 0 5
-6.5974064 -8.9296246 -2.7628684 0 5
-6.473259 -8.9908257 -2.7569678 0 5
-6.3520823 -9.0552826 -2.7525735 0 5
-6.2434497 -9.1373653 -2.7539794 0 5
-6.1106515 -9.1834173 -2.7450054 0 5
-6.0425601 -9.3277636 -2.765733 0 5
-5.9220653 -9.3928728 -2.7632375 0 5
-5.8075094 -9.4672308 -2.7638953 0 5
-5.6833453 -9.5256519 -2.76034 0 5
-5.5632215 -9.5903797 -2.7590647 0 5
-5.452827 -9.6721497 -2.7630906 0 5
-5.3322949 -9.7362814 -2.7624714 0 5
-5.2175775 -9.8112602 -2.7653325 0 5
-5.0944152 -9.8705387 -2.7641752 0 5
-4.9411535 -9.8694868 -2.7466578 0 5
-4.8232937 -9.9374571 -2.7488604 0 5
-4.7013788 -9.9973631 -2.7492323 0 5
-4.5826125 -10.064322 -2.7519417 0 5
-4.4781613 -10.16449 -2.7640653 0 5
-4.3481908 -10.207857 -2.7611098 0 5
-4.1984382 -10.202439 -2.7454727 0 5
-4.074873 -10.258821 -2.7469535 0 5
-3.961978 -10.343525 -2.7563808 0 5
-3.8358328 -10.395072 -2.7573395 0 5
-3.6974325 -10.412451 -2.7496817 0 5
-3.5808873 -10.491584 -2.7587423 0 5
-3.453099 -10.539343 -2.759927 0 5
-3.3134377 -10.54976 -2.7517772 0 5
-3.1875672 -10.603325 -2.755317 0 5
-3.0456188 -10.602261 -2.7451012 0 5
-2.9235663 -10.670069 -2.7531419 0 5
-2.7825725 -10.668485 -2.7436972 0 5
-2.6583111 -10.730648 -2.7510695 0 5
-2.5171723 -10.724183 -2.7412696 0 5
-2.3984179 -10.814272 -2.7565506 0 5
-2.2571843 -10.804244 -2.746712 0 5
-2.1343157 -10.882915 -2.7598317 0 5
-1.9950231 -10.879325 -2.752492 0 5
-1.8545327 -10.864529 -2.7427716 0 5
-1.7277474 -10.930416 -2.7538333 0 5
-1.591145 -10.936562 -2.7502444 0 5
-1.4538071 -10.93464 -2.7450583 0 5
-1.3169596 -10.932676 -2.7402928 0 5
-1.1901449 -11.01941 -2.7581558 0 5
-1.052394 -11.010493 -2.7524769 0 5
-0.91673023 -11.020145 -2.7518637 0 5
-0.78009117 -11.015459 -2.7480905 0 5
-0.64570892 -11.043335 -2.752856 0 5
-0.50898862 -11.031201 -2.7480633 0 5
-0.37372333 -11.04868 -2.7510648 0 5
-0.23802264 -11.060669 -2.753113 0 5
-0.10178553 -11.038661 -2.7471156 0 5
0.034029733 -11.065502 -2.7536917 0 5
0.16943063 -11.021776 -2.7431214 0 5
0.3051253 -11.025681 -2.7448194 0 5
0.44113407 -11.032728 -2.7477164 0 5
0.5784958 -11.059769 -2.7560141 0 5
0.71078449 -10.995304 -2.7419209 0 5
0.84870332 -11.021828 -2.7509296 0 5
0.9804306 -10.968852 -2.7405093 0 5
1.1179518 -10.982761 -2.7472112 0 5
1.2514498 -10.955435 -2.7440176 0 5
1.3882247 -10.956319 -2.7483068 0 5
1.5221757 -10.933695 -2.7471194 0 5
1.6539537 -10.8974 -2.7429025 0 5
1.7848055 -10.857914 -2.7382808 0 5
1.9183303 -10.836027 -2.7385032 0 5
2.0615427 -10.864971 -2.7520163 0 5
2.1932571 -10.830305 -2.7498591 0 5
2.3130493 -10.741192 -2.7342477 0 5
2.4473035 -10.722281 -2.7368875 0 5
2.5824914 -10.706041 -2.7406406 0 5
2.7183049 -10.690674 -2.7450557 0 5
2.8443649 -10.637063 -2.7400637 0 5
2.9799659 -10.619202 -2.7446942 0 5
3.1049054 -10.563374 -2.7399254 0 5
3.2437816 -10.554425 -2.7477427 0 5
3.3734429 -10.514161 -2.7478518 0 5
3.4988093 -10.460958 -2.7449837 0 5
3.6255069 -10.412376 -2.7437265 0 5
3.7596173 -10.384576 -2.7483749 0 5
3.8703732 -10.2933 -2.7366066 0 5
4.000546 -10.25494 -2.7392797 0 5
4.1232934 -10.197456 -2.7372613 0 5
4.2594528 -10.172467 -2.7444053 0 5
4.3830237 -10.116595 -2.7436645 0 5
4.5006461 -10.047573 -2.7397473 0 5
4.632194 -10.009513 -2.7446935 0 5
4.7410526 -9.9227867 -2.7366912 0 5
4.8700423 -9.8786354 -2.7408233 0 5
4.9917626 -9.8192387 -2.7411666 0 5
5.1080122 -9.7492828 -2.7389648 0 5
5.2378702 -9.704957 -2.7443991 0 5
5.3470612 -9.6222916 -2.7394085 0 5
5.453537 -9.5358315 -2.7336783 0 5
5.5799813 -9.4843874 -2.7383938 0 5
5.6956639 -9.414217 -2.738148 0 5
5.8235521 -9.3636789 -2.7440691 0 5
5.9297042 -9.2780066 -2.740123 0 5
6.0525174 -9.2183828 -2.744287 0 5
6.1458178 -9.1142187 -2.7355685 0 5
6.2729259 -9.0603638 -2.7423484 0 5
6.3698254 -8.9628105 -2.7363222 0 5
6.4794664 -8.8837032 -2.7362883 0 5
6.577188 -8.7886391 -2.7317119 0 5
6.7023196 -8.7299881 -2.7388909 0 5
6.8092337 -8.6470213 -2.7389233 0 5
6.909905 -8.5562878 -2.7368898 0 5
7.0294247 -8.4885979 -2.7426794 0 5
7.1298542 -8.3975086 -2.7413678 0 5
7.2268109 -8.3025951 -2.739186 0 5
7.3251529 -8.209527 -2.7379911 0 5
7.4267731 -8.1201887 -2.738446 0 5
7.500093 -8.0005646 -2.7289996 0 5
7.6295843 -7.940722 -2.740381 0 5
7.7240381 -7.8436666 -2.7394571 0 5
7.8065624 -7.7348909 -2.734786 0 5
7.9285774 -7.6649065 -2.7443049 0 5
8.0044937 -7.5501184 -2.73824 0 5
8.0972872 -7.4516487 -2.7384315 0 5
8.1707058 -7.335731 -2.7325482 0 5
8.2593784 -7.2339191 -2.7322483 0 5
8.3644419 -7.1461234 -2.7377284 0 5
8.4311857 -7.0256643 -2.7310915 0 5
8.53269 -6.9342723 -2.7361441 0 5
8.632412 -6.8408055 -2.7409408 0 5
8.6746254 -6.7022805 -2.7279699 0 5
8.7685432 -6.6042776 -2.73176 0 5
8.8733654 -6.5137892 -2.7392559 0 5
8.9179878 -6.379302 -2.7286088 0 5
9.0248671 -6.2894597 -2.7374406 0 5
9.090992 -6.1708746 -2.7342751 0 5
9.1769228 -6.0657306 -2.7374799 0 5
9.2374811 -5.9438601 -2.7335355 0 5
9.298419 -5.8226633 -2.7301748 0 5
9.3963976 -5.7243962 -2.7380681 0 5
9.4662905 -5.6085596 -2.7381315 0 5
9.5301809 -5.489234 -2.7368808 0 5
9.5766649 -5.3602843 -2.7310948 0 5
9.6336088 -5.2376494 -2.728761 0 5
9.7013102 -5.1209302 -2.7298949 0 5
9.7622156 -5.0005808 -2.7295241 0 5
9.8212957 -4.8793435 -2.7290611 0 5
9.8747444 -4.7554216 -2.7274582 0 5
9.946104 -4.640008 -2.7312026 0 5
10.011072 -4.5212798 -2.7335696 0 5
10.07629 -4.4023824 -2.7363892 0 5
10.128609 -4.2777133 -2.7361059 0 5
10.145114 -4.138443 -2.7266116 0 5
10.189419 -4.0111022 -2.7250569 0 5
10.264061 -3.8954177 -2.7320025 0 5
10.342565 -3.7803919 -2.7403176 0 5
10.347357 -3.6385541 -2.7295265 0 5
10.411342 -3.5178201 -2.7347877 0 5
10.407165 -3.3744173 -2.7225854 0 5
10.481403 -3.2566202 -2.7313242 0 5
10.537181 -3.1324127 -2.7356153 0 5
10.552175 -2.9961631 -2.7297366 0 5
10.630185 -2.877553 -2.7405567 0 5
10.626121 -2.7366793 -2.7306266 0 5
10.683471 -2.6118095 -2.7369041 0 5
10.705239 -2.4780452 -2.734468 0 5
10.696364 -2.3378091 -2.7246523 0 5
10.772625 -2.2160556 -2.7369297 0 5
10.77766 -2.0793045 -2.7315063 0 5
10.771525 -1.9410642 -2.7236965 0 5
10.839486 -1.8159996 -2.735028 0 5
10.841361 -1.6795433 -2.7300835 0 5
10.855304 -1.5452776 -2.7286034 0 5
10.914612 -1.4170287 -2.7389243 0 5
10.914828 -1.2807982 -2.7348197 0 5
10.932511 -1.1467872 -2.7355103 0 5
10.935376 -1.0113167 -2.732909 0 5
10.916225 -0.87432021 -2.72523 0 5
10.919235 -0.7395649 -2.7235053 0 5
11.001104 -0.60932773 -2.7418492 0 5
10.992975 -0.47338024 -2.7381651 0 5
10.990426 -0.33794805 -2.7362883 0 5
10.999805 -0.20290098 -2.7377956 0 5
10.992525 -0.067582078 -2.7355697 0 5
10.99415 0.06759207 -2.7359743 0 5
11.003316 0.20296572 -2.7386692 0 5
10.996344 0.33813003 -2.7377617 0 5
10.990046 0.47325408 -2.7374356 0 5
10.976726 0.60797745 -2.7357731 0 5
10.918298 0.73950142 -2.7232714 0 5
10.93377 0.87572545 -2.72961 0 5
10.915706 1.0094975 -2.727993 0 5
10.918283 1.1452945 -2.7319498 0 5
10.927789 1.2823191 -2.7380672 0 5
10.904633 1.4157331 -2.7364199 0 5
10.846882 1.5440788 -2.7264864 0 5
10.849439 1.6807947 -2.7321179 0 5
10.852704 1.8182142 -2.7383633 0 5
10.772818 1.9412973 -2.7240233 0 5
10.779395 2.0796392 -2.7319462 0 5
10.765162 2.2145205 -2.7350338 0 5
10.686781 2.3357143 -2.7222109 0 5
10.70418 2.4777999 -2.7341974 0 5
10.691456 2.6137614 -2.7389495 0 5
10.619057 2.7348602 -2.7288113 0 5
10.624274 2.8759527 -2.7390325 0 5
10.541936 2.9932561 -2.727088 0 5
10.53503 3.1317735 -2.7350569 0 5
10.478164 3.2556136 -2.73048 0 5
10.40095 3.3724024 -2.7209597 0 5
10.408031 3.5167012 -2.733918 0 5
10.346044 3.6380923 -2.7291801 0 5
10.348537 3.7825754 -2.7419002 0 5
10.271079 3.8980813 -2.7338705 0 5
10.207587 4.0182543 -2.7299161 0 5
10.139883 4.1363091 -2.7252057 0 5
10.143867 4.2841573 -2.7402275 0 5
10.072527 4.4007387 -2.7353673 0 5
10.006117 4.5190415 -2.7322164 0 5
9.9555674 4.644423 -2.7338014 0 5
9.8924465 4.7639465 -2.7323477 0 5
9.8236351 4.8805056 -2.7297111 0 5
9.764843 5.0019269 -2.7302589 0 5
9.6993132 5.1198759 -2.7293329 0 5
9.6338959 5.2378054 -2.7288423 0 5
9.5901585 5.3678374 -2.7349432 0 5
9.5198755 5.4832988 -2.7339215 0 5
9.4618702 5.6059408 -2.7368529 0 5
9.4078741 5.7313881 -2.7414124 0 5
9.2943525 5.8201165 -2.7289805 0 5
9.2406025 5.9458685 -2.7344592 0 5
9.1751556 6.0645628 -2.736953 0 5
9.0806074 6.163825 -2.7311516 0 5
9.037838 6.2984996 -2.7413752 0 5
8.9264174 6.3853321 -2.7311883 0 5
8.8773737 6.5167317 -2.7404935 0 5
8.773037 6.6076617 -2.7331598 0 5
8.668334 6.6974196 -2.7259915 0 5
8.6288662 6.8379955 -2.739815 0 5
8.5399847 6.9402008 -2.7384834 0 5
8.4348497 7.0287175 -2.7322783 0 5
8.3512182 7.1348262 -2.7334003 0 5
8.2671385 7.2407165 -2.7348156 0 5
8.1849051 7.3484793 -2.7372968 0 5
8.0953741 7.4498878 -2.7377844 0 5
8.0006533 7.5464959 -2.7369263 0 5
7.9234705 7.6599689 -2.742537 0 5
7.8060346 7.7343678 -2.734601 0 5
7.7328482 7.852613 -2.7425818 0 5
7.6198797 7.9306216 -2.7368953 0 5
7.5063467 8.0072365 -2.7312753 0 5
7.4461808 8.141408 -2.7456021 0 5
7.328722 8.2135277 -2.7393253 0 5
7.2229443 8.2981529 -2.7377205 0 5
7.1293421 8.3969049 -2.7411709 0 5
7.0256362 8.4840231 -2.7412012 0 5
6.9022002 8.5467472 -2.7338383 0 5
6.8109183 8.6491613 -2.7396011 0 5
6.6943636 8.7196245 -2.7356398 0 5
6.5910749 8.8071957 -2.7374797 0 5
6.4815564 8.886569 -2.7371709 0 5
6.3648868 8.955862 -2.7342005 0 5
6.2635326 9.0467968 -2.7382419 0 5
6.1391582 9.1043425 -2.7326043 0 5
6.0441222 9.205596 -2.7404804 0 5
5.9335656 9.2840481 -2.7419074 0 5
5.8221564 9.3614349 -2.7434113 0 5
5.6921229 9.4083643 -2.7364457 0 5
5.5770211 9.4793558 -2.7369411 0 5
5.4492531 9.5283403 -2.7315311 0 5
5.3415828 9.6124325 -2.7366018 0 5
5.24265 9.7138138 -2.7469034 0 5
5.1094952 9.7521133 -2.7397602 0 5
4.9923863 9.8204651 -2.741509 0 5
4.8725348 9.8836908 -2.7422259 0 5
4.7360201 9.9122524 -2.7337861 0 5
4.632216 10.009562 -2.7447066 0 5
4.4979424 10.041537 -2.7381015 0 5
4.3746409 10.097247 -2.7384174 0 5
4.2577777 10.168467 -2.7433259 0 5
4.116426 10.180473 -2.7327025 0 5
4.0021462 10.259042 -2.7403753 0 5
3.8664038 10.282743 -2.7338002 0 5
3.7578559 10.37971 -2.7470872 0 5
3.6277111 10.418707 -2.7453947 0 5
3.5043457 10.47751 -2.7493272 0 5
3.3709693 10.506452 -2.745837 0 5
3.2437153 10.55421 -2.7476864 0 5
3.1060114 10.567136 -2.7409015 0 5
2.980583 10.621401 -2.7452626 0 5
2.8448486 10.638872 -2.7405295 0 5
2.7179952 10.689456 -2.7447429 0 5
0.24523383 1.0166476 -0.2602517 0 5
0.22328722 0.97828013 -0.24970828 0 5
0.20927083 0.97179872 -0.24737835 0 5
0.1973521 0.97452486 -0.24743585 0 5
0.17970283 0.94708973 -0.23989078 0 5
0.16728026 0.94491208 -0.23880012 0 5
0.15502332 0.94308865 -0.23783958 0 5
0.1437925 0.94740522 -0.23846425 0 5
0.3084079 2.215275 -0.55659366 0 5
0.28657767 2.2617636 -0.56734574 0 5
0.25873753 2.2650387 -0.56732625 0 5
0.095959462 0.94270605 -0.23580706 0 5
0.090954587 1.0175809 -0.25423715 0 5
0.84798557 11.012506 -2.7486031 0 5
0.71177936 11.010694 -2.7457585 0 5
0.57768881 11.044341 -2.7521698 0 5
0.44109055 11.031641 -2.7474456 0 5
0.054784186 1.9796228 -0.49282283 0 5
0.031160351 2.0270388 -0.50449336 0 5
0.034018941 11.061994 -2.7528183 0 5
-0.10203166 11.065352 -2.7537584 0 5
-0.23768166 11.044824 -2.7491689 0 5
-0.37361532 11.045487 -2.7502697 0 5
-0.1168915 2.5333641 -0.63110489 0 5
-0.13237841 2.2640219 -0.56436992 0 5
-0.15999131 2.2591946 -0.56361443 0 5
-0.18479991 2.2215061 -0.55473697 0 5
-0.16493677 1.7256229 -0.43138278 0 5
-0.10278991 0.95171952 -0.23821519 0 5
-0.11514613 0.95587999 -0.23959284 0 5
-0.12736571 0.95796621 -0.24049012 0 5
-0.13915463 0.95646411 -0.24052441 0 5
-0.1532681 0.96963489 -0.24429198 0 5
-0.16601665 0.9725861 -0.24553126 0 5
-0.17562436 0.95772046 -0.24230528 0 5
-0.43583259 2.2223186 -0.56356454 0 5
-0.46234077 2.2130415 -0.5626111 0 5
-0.49017867 2.2101758 -0.56337231 0 5
-0.51978594 2.2145007 -0.56606114 0 5
-0.545771 2.2030816 -0.56481498 0 5
-0.58187848 2.2309434 -0.57374907 0 5
-0.60943061 2.2242241 -0.57390487 0 5
-0.63531959 2.2116439 -0.5726313 0 5
-0.66808712 2.222367 -0.5774911 0 5
-0.6953845 2.2140567 -0.57750994 0 5
-0.72376305 2.2090266 -0.57847548 0 5
-0.75817829 2.2213745 -0.58410627 0 5
-0.78995585 2.2246184 -0.58746904 0 5
-0.8216241 2.2265937 -0.59061402 0 5
-0.84803855 2.2139719 -0.58998746 0 5
-0.8827756 2.2224586 -0.59509671 0 5
-0.88170272 2.1425869 -0.57656932 0 5
-0.90367776 2.1214831 -0.57383716 0 5
-0.91008866 2.065711 -0.56173599 0 5
-0.91912919 2.0185895 -0.55195373 0 5
-0.91758204 1.951215 -0.53657579 0 5
-0.91905928 1.8935425 -0.52378428 0 5
-0.92396671 1.8455362 -0.51360893 0 5
-0.93217909 1.8061169 -0.50579035 0 5
-0.94505823 1.7771106 -0.50088382 0 5
-0.93583316 1.7087455 -0.48482168 0 5
-0.94378537 1.6740736 -0.47824085 0 5
-0.95489568 1.6461346 -0.47357792 0 5
-0.99190706 1.6625 -0.48175862 0 5
-1.0107702 1.6477278 -0.48104322 0 5
-1.31108 2.0794785 -0.61175036 0 5
-1.3100116 2.0222354 -0.59960383 0 5
-1.3070165 1.9642552 -0.58713335 0 5
-1.3054998 1.910615 -0.57585466 0 5
-1.3172835 1.8778683 -0.57082379 0 5
-1.3149415 1.8263459 -0.56003499 0 5
-1.3161756 1.7814506 -0.5511893 0 5
-1.3083106 1.7259915 -0.53896683 0 5
-1.306103 1.679769 -0.52950829 0 5
-1.3161401 1.6503938 -0.52531028 0 5
-1.3371757 1.6351168 -0.5256415 0 5
-1.3419098 1.6003418 -0.51972759 0 5
-1.3531443 1.5740187 -0.51654351 0 5
-7.3309808 8.31849 -2.7592416 0 5
-7.4507203 8.2476625 -2.7659285 0 5
-7.5208588 8.1222658 -2.7546811 0 5
-7.6452188 8.0555849 -2.7637405 0 5
-7.7180796 7.9346461 -2.7546008 0 5
-7.8425794 7.866756 -2.7643018 0 5
-7.9127431 7.7443156 -2.755259 0 5
-8.0289736 7.6670728 -2.7626941 0 5
-1.0392492 0.96825713 -0.35347232 0 5
-1.0596594 0.96320802 -0.35635892 0 5
-1.0943582 0.97044492 -0.36398745 0 5
-1.1174382 0.96663064 -0.36768273 0 5
-1.1414424 0.96311504 -0.37165624 0 5
-1.1671691 0.96050477 -0.37615883 0 5
-1.1775014 0.94496614 -0.37571549 0 5
-1.211772 0.94821131 -0.38290122 0 5
-1.2498924 0.95349675 -0.39121231 0 5
-1.265198 0.94079024 -0.39235237 0 5
-1.2963268 0.93940753 -0.39839342 0 5
-1.3384488 0.94505262 -0.40773636 0 5
-8.358448 5.749043 -2.5245371 0 5
-8.3633709 5.6022077 -2.5050285 0 5
-8.3976965 5.4768267 -2.4949493 0 5
-8.4068375 5.336617 -2.4779818 0 5
-8.4106579 5.1950698 -2.4600925 0 5
-8.4390974 5.0703545 -2.4499893 0 5
-8.4460135 4.9342003 -2.4341989 0 5
-8.4684658 4.808641 -2.423445 0 5
-1.329774 0.73361051 -0.37793514 0 5
-1.3054358 0.69938684 -0.36854589 0 5
-8.507165 4.4239588 -2.3861737 0 5
-8.7216587 4.4001193 -2.4309773 0 5
-9.0448618 4.424509 -2.5057094 0 5
-9.4352617 4.472559 -2.5984302 0 5
-1.4559034 0.66833788 -0.3986561 0 5
-10.130292 4.5003781 -2.7585194 0 5
-10.230639 4.3951473 -2.7709184 0 5
-10.243153 4.2521057 -2.7599373 0 5
-10.293308 4.1252975 -2.7595749 0 5
-10.38461 4.0144114 -2.7706089 0 5
-10.412753 3.878813 -2.7651834 0 5
-10.45757 3.7497404 -2.7646313 0 5
-10.514436 3.6248577 -2.7676718 0 5
-10.546926 3.4915671 -2.7647135 0 5
-10.599636 3.3649809 -2.7674751 0 5
-10.64805 3.2367818 -2.7695148 0 5
-10.653441 3.095849 -2.7608068 0 5
-10.698256 2.9667203 -2.762758 0 5
-10.754626 2.8404226 -2.7680862 0 5
-10.784513 2.7069135 -2.7670021 0 5
-10.797516 2.5694754 -2.762023 0 5
-10.854091 2.4423246 -2.7686033 0 5
-10.883239 2.30867 -2.7685878 0 5
-10.889256 2.1703861 -2.7631207 0 5
-10.932795 2.0396302 -2.7675951 0 5
-10.966414 1.9066801 -2.7699614 0 5
-10.943206 1.7643101 -2.7584107 0 5
-11.002373 1.6353168 -2.7680469 0 5
-10.998167 1.4967176 -2.7621496 0 5
-11.044586 1.3649412 -2.769383 0 5
-11.06115 1.2291073 -2.769537 0 5
-11.076862 1.0931532 -2.7698963 0 5
-11.051531 0.95360136 -2.760421 0 5
-11.100613 0.82046753 -2.7699511 0 5
-11.071637 0.68156439 -2.7604208 0 5
-11.066262 0.54474521 -2.7572021 0 5
-11.100661 0.40969154 -2.7643087 0 5
-11.11417 0.27340099 -2.7666264 0 5
-11.099609 0.13651548 -2.7623751 0 5
-11.095821 2.944376e-05 -2.7612236 0 5
-11.578306 -3.0724077e-05 -2.768384 0 6
-11.611217 -0.14280781 -2.776463 0 6
-11.581403 -0.28489459 -2.7699618 0 6
-11.566278 -0.42687607 -2.767391 0 6
-11.566113 -0.56935066 -2.7688169 0 6
-11.583191 -0.71305543 -2.7747948 0 6
-11.561693 -0.85454684 -2.7719524 0 6
-11.521378 -0.99414295 -2.7650084 0 6
-11.49995 -1.134907 -2.7630064 0 6
-11.5035 -1.2782609 -2.7674265 0 6
-11.492174 -1.4202561 -2.7686939 0 6
-11.504601 -1.5656372 -2.7761161 0 6
-11.456639 -1.7028359 -2.7693858 0 6
-11.407791 -1.8392125 -2.762836 0 6
-11.442162 -1.989396 -2.7768745 0 6
-11.389843 -2.1248972 -2.7703092 0 6
-11.398464 -2.2718785 -2.778991 0 6
-11.325052 -2.4023926 -2.7680857 0 6
-11.302812 -2.5432935 -2.7700841 0 6
-11.293537 -2.6875134 -2.7757006 0 6
-11.218586 -2.8158658 -2.7655802 0 6
-11.20728 -2.9599738 -2.7715561 0 6
-11.146902 -3.0911336 -2.7658155 0 6
-11.109421 -3.2283549 -2.7661562 0 6
-11.083939 -3.3692825 -2.7699175 0 6
-11.0673 -3.5134463 -2.7763462 0 6
-11.02395 -3.6494865 -2.7765193 0 6
-10.945334 -3.7734103 -2.7681959 0 6
-10.880861 -3.9015186 -2.7638144 0 6
-10.833092 -4.0353913 -2.7640758 0 6
-10.803091 -4.1761851 -2.7693143 0 6
-10.785319 -4.3224831 -2.7781737 0 6
-10.670278 -4.4294128 -2.7623613 0 6
-10.649204 -4.574965 -2.77126 0 6
-10.556092 -4.6895399 -2.7618268 0 6
-10.529605 -4.8336544 -2.7702379 0 6
-10.4421 -4.9498262 -2.7630205 0 6
-10.419472 -5.0969319 -2.7734072 0 6
-10.333915 -5.2135105 -2.7674887 0 6
-10.254282 -5.3325071 -2.7635138 0 6
-10.234651 -5.483211 -2.7761841 0 6
-10.155878 -5.6028004 -2.7732949 0 6
-10.074549 -5.7206216 -2.7700858 0 6
-9.9970722 -5.8403354 -2.7683198 0 6
-9.9179029 -5.9588461 -2.7664778 0 6
-9.8441315 -6.080493 -2.766547 0 6
-9.7538204 -6.1916747 -2.7623541 0 6
-9.6896906 -6.3194423 -2.7659903 0 6
-9.6132154 -6.4394169 -2.7665539 0 6
-9.5397739 -6.5615735 -2.768429 0 6
-9.4757404 -6.6906362 -2.7735119 0 6
-9.3986731 -6.810925 -2.7752581 0 6
-9.2652216 -6.8895383 -2.760659 0 6
-9.1886482 -7.0096807 -2.7633169 0 6
-9.1181097 -7.1349192 -2.7682788 0 6
-9.0479174 -7.2611175 -2.7738659 0 6
-8.907671 -7.3304377 -2.7582955 0 6
-8.8456726 -7.4637141 -2.7673075 0 6
-8.7838058 -7.5983591 -2.776973 0 6
-8.6520729 -7.6724057 -2.7649434 0 6
-8.5885839 -7.8068414 -2.7751222 0 6
-8.4445276 -7.8676744 -2.7596264 0 6
-8.3724785 -7.9950948 -2.7679994 0 6
-8.2446842 -8.069191 -2.7583449 0 6
-8.1809406 -8.2061605 -2.7705688 0 6
-8.0453606 -8.2711105 -2.758888 0 6
-7.9891529 -8.4179802 -2.7748995 0 6
-7.8562112 -8.4844351 -2.7647524 0 6
-7.7306957 -8.5575848 -2.7574043 0 6
-7.664866 -8.6973505 -2.7718604 0 6
-7.5367379 -8.766963 -2.7643013 0 6
-7.407505 -8.8340807 -2.7565355 0 6
-7.3379025 -8.972888 -2.7714834 0 6
-7.2079124 -9.0384712 -2.7641554 0 6
-7.0827208 -9.1090336 -2.7588913 0 6
-6.9634337 -9.1865244 -2.7562191 0 6
-6.8792686 -9.3111258 -2.7680144 0 6
-6.7638054 -9.394371 -2.7678273 0 6
-6.6419191 -9.4684629 -2.7653849 0 6
-6.5076799 -9.5240688 -2.7580454 0 6
-6.3920178 -9.6062708 -2.7588801 0 6
-6.277081 -9.6897879 -2.7604899 0 6
-6.1442175 -9.745224 -2.7545507 0 6
-6.0223589 -9.8174725 -2.7538323 0 6
-5.8923764 -9.8760014 -2.7497182 0 6
-5.7787433 -9.961915 -2.7536461 0 6
-5.6552892 -10.031275 -2.7533879 0 6
-5.5318117 -10.100581 -2.7535324 0 6
-5.3985467 -10.15156 -2.749125 0 6
-5.2852907 -10.240364 -2.7553658 0 6
-5.1564431 -10.299508 -2.7540107 0 6
-5.0367227 -10.377185 -2.7580121 0 6
-4.9051905 -10.430764 -2.7560129 0 6
-4.7868409 -10.512849 -2.7619402 0 6
-4.666995 -10.593102 -2.7677383 0 6
-4.5020504 -10.569059 -2.7467847 0 6
-4.3843822 -10.654294 -2.7547166 0 6
-4.2588921 -10.722104 -2.7585003 0 6
-4.1316013 -10.78636 -2.7617524 0 6
-3.9797766 -10.785158 -2.7487068 0 6
-3.8589664 -10.867351 -2.7573526 0 6
-3.7267375 -10.918909 -2.7585983 0 6
-3.6036792 -10.998936 -2.7674122 0 6
-3.4505117 -10.986194 -2.7533226 0 6
-3.3249323 -11.060265 -2.761431 0 6
-3.1741829 -11.049812 -2.7488682 0 6
-3.04846 -11.125891 -2.7582607 0 6
-2.9028995 -11.129823 -2.7501783 0 6
-2.7720318 -11.189697 -2.7563422 0 6
-2.6291943 -11.201443 -2.7510636 0 6
-2.49652 -11.256606 -2.7568638 0 6
-2.3504369 -11.250607 -2.7481084 0 6
-2.2217464 -11.328726 -2.7603083 0 6
-2.0752258 -11.316689 -2.7509496 0 6
-1.9335266 -11.327304 -2.7475429 0 6
-1.7998114 -11.386321 -2.7562814 0 6
-1.658582 -11.400083 -2.7544675 0 6
-1.5121654 -11.373575 -2.7433627 0 6
-1.3810949 -11.465092 -2.761132 0 6
-1.2383274 -11.465526 -2.7573609 0 6
-1.0966289 -11.473294 -2.7557778 0 6
-0.9542073 -11.470662 -2.7521195 0 6
-0.81122708 -11.455121 -2.7457898 0 6
-0.67083037 -11.472979 -2.7478852 0 6
-0.52937096 -11.472943 -2.7461102 0 6
-0.38789028 -11.467509 -2.7434602 0 6
-0.2468608 -11.471369 -2.7434502 0 6
-0.10594954 -11.490248 -2.7474458 0 6
0.035366293 -11.500114 -2.7497013 0 6
0.17667772 -11.493213 -2.7483628 0 6
0.31854361 -11.510551 -2.7532375 0 6
0.4607335 -11.522908 -2.7573397 0 6
0.59919101 -11.455422 -2.7427466 0 6
0.74178982 -11.474934 -2.7493942 0 6
0.88314766 -11.469145 -2.7504013 0 6
1.0225545 -11.440125 -2.7462499 0 6
1.1649873 -11.444839 -2.7506123 0 6
1.3025301 -11.402602 -2.744103 0 6
1.4474756 -11.423945 -2.7533147 0 6
1.5861307 -11.393081 -2.7503686 0 6
1.73062 -11.402531 -2.7575788 0 6
1.8686928 -11.368243 -2.7546356 0 6
2.0052133 -11.3268 -2.7503603 0 6
2.1422582 -11.290366 -2.7477019 0 6
2.2801476 -11.259371 -2.7467744 0 6
2.4200466 -11.23806 -2.7486274 0 6
2.5513959 -11.178337 -2.7414865 0 6
2.6934969 -11.166228 -2.7464318 0 6
2.8366096 -11.155948 -2.7522743 0 6
2.9649439 -11.087992 -2.7442961 0 6
3.1050699 -11.065014 -2.7478514 0 6
3.2515671 -11.062339 -2.7569079 0 6
3.376132 -10.985059 -2.7477868 0 6
3.4986117 -10.904281 -2.7381351 0 6
3.6371484 -10.874573 -2.7416985 0 6
3.7815464 -10.860518 -2.7496707 0 6
3.9214642 -10.831618 -2.754354 0 6
4.0344911 -10.729773 -2.7408638 0 6
4.1709332 -10.691709 -2.7440343 0 6
4.3120303 -10.664228 -2.7503817 0 6
4.4310403 -10.582254 -2.7430851 0 6
4.5734053 -10.556021 -2.7506547 0 6
4.7016149 -10.49623 -2.7499313 0 6
4.8251948 -10.426561 -2.7470157 0 6
4.941165 -10.341611 -2.7404351 0 6
5.0761166 -10.296646 -2.7448525 0 6
5.210135 -10.248796 -2.7489676 0 6
5.339807 -10.191692 -2.751055 0 6
5.4585238 -10.113794 -2.7479379 0 6
5.5687294 -10.021194 -2.7411761 0 6
5.7056446 -9.976656 -2.7479768 0 6
5.8196158 -9.8916988 -2.7440791 0 6
5.9360628 -9.8115654 -2.7418911 0 6
6.0527387 -9.7321873 -2.7403004 0 6
6.1715136 -9.6563568 -2.7401094 0 6
6.2949014 -9.5875492 -2.7423418 0 6
6.418118 -9.5180397 -2.7448258 0 6
6.5325589 -9.4353676 -2.7439423 0 6
6.6407223 -9.3439827 -2.7409062 0 6
