# .PCD v0.7 - Point Cloud Data file format
VERSION 0.7
FIELDS x y z intensity ring
SIZE 4 4 4 4 2
TYPE F F F F U
COUNT 1 1 1 1 1
WIDTH 1264
HEIGHT 1
VIEWPOINT 0 0 0 1 0 0 0
POINTS 1264
DATA ascii
-5.1212082 5.9571452 -1.5751268 0 10
-5.2107143 5.9126163 -1.580175 0 10
-5.2938895 5.8601341 -1.5834265 0 10
-5.3424654 5.7696767 -1.576616 0 10
-5.4226537 5.7137208 -1.579427 0 10
-5.4937997 5.6479535 -1.5798016 0 10
-5.5422273 5.5593123 -1.5739508 0 10
-5.6393394 5.5193024 -1.5821363 0 10
-5.6787548 5.4227886 -1.5743678 0 10
-5.7589436 5.3655448 -1.5781884 0 10
-5.843864 5.3119488 -1.5834405 0 10
-5.9022317 5.2339263 -1.5816976 0 10
-5.974854 5.168498 -1.584008 0 10
-6.0224714 5.0815816 -1.5799468 0 10
-6.0917983 5.0131564 -1.5818428 0 10
-6.1497431 4.9352798 -1.5810112 0 10
-6.1940846 4.8468699 -1.5769695 0 10
-6.2814507 4.7918868 -1.5840911 0 10
-6.3052874 4.6885571 -1.5754441 0 10
-6.345634 4.5984831 -1.5712779 0 10
-6.4486313 4.5532527 -1.5827981 0 10
-6.4926362 4.4657149 -1.5800016 0 10
-6.5276313 4.3725367 -1.5753143 0 10
-6.5762753 4.288929 -1.5742072 0 10
-6.5917063 4.184381 -1.5654659 0 10
-6.6016321 4.0776758 -1.5557976 0 10
-6.6096892 3.9712145 -1.5460714 0 10
-6.6316733 3.874254 -1.5399538 0 10
-6.6319027 3.7657869 -1.5291388 0 10
-6.6613965 3.674963 -1.5254045 0 10
-6.6465788 3.5609026 -1.5118703 0 10
-6.6529956 3.4597399 -1.5035393 0 10
-6.6729846 3.3665531 -1.498588 0 10
-6.6906915 3.2729104 -1.4934134 0 10
-6.6898241 3.1711502 -1.4844038 0 10
-6.7014647 3.0763323 -1.4784814 0 10
-6.7096548 2.9807613 -1.4720907 0 10
-6.7194033 2.886698 -1.4663308 0 10
-6.7255363 2.7918839 -1.4600672 0 10
-6.7421975 2.7021022 -1.4563608 0 10
-6.7492471 2.6090777 -1.4508439 0 10
-6.7446795 2.5124335 -1.4431118 0 10
-6.7729487 2.4285567 -1.4426619 0 10
-6.7826481 2.3383217 -1.4384946 0 10
-6.7886763 2.2473962 -1.4338037 0 10
-6.8043838 2.1601329 -1.4314029 0 10
-6.8054018 2.0686979 -1.4261581 0 10
-6.9874325 2.0305209 -1.4589622 0 10
-7.5120635 2.0831611 -1.5630375 0 10
-7.6349225 2.0164723 -1.5833219 0 10
-7.6525645 1.9207942 -1.5819628 0 10
-7.6773968 1.8269835 -1.5823325 0 10
-7.719069 1.7369002 -1.5863994 0 10
-7.7156782 1.6367331 -1.5814468 0 10
-7.7351251 1.5417221 -1.5814275 0 10
-7.7701459 1.449604 -1.5848233 0 10
-7.778151 1.3523513 -1.5829446 0 10
-7.7841201 1.2549889 -1.5808994 0 10
-7.8327413 1.1642047 -1.5877465 0 10
-7.8401594 1.066951 -1.5864708 0 10
-7.8368421 0.96851325 -1.58327 0 10
-7.8668308 0.87415677 -1.587037 0 10
-7.8390517 0.77362025 -1.5793943 0 10
-7.8705626 0.67912573 -1.5839409 0 10
-7.8542204 0.58052045 -1.5790961 0 10
-7.8850284 0.48539838 -1.5839703 0 10
-7.8883843 0.38831174 -1.5835656 0 10
-7.8781285 0.29075772 -1.5806695 0 10
-7.9029074 0.19440612 -1.5850416 0 10
-7.877697 0.096888781 -1.579627 0 10
-7.8845267 2.09223e-05 -1.5808769 0 10
-8.3206024 -2.2079466e-05 -1.5887972 0 11
-1.8146933 -0.02231914 -0.34653711 0 11
-1.8113537 -0.044558063 -0.34597784 0 11
-1.8289579 -0.067501262 -0.34947246 0 11
-1.8175026 -0.08946795 -0.34746754 0 11
-1.8097143 -0.1114051 -0.34621432 0 11
-1.816303 -0.13424644 -0.34776431 0 11
-1.8223981 -0.15724891 -0.34927514 0 11
-1.7931296 -0.17696035 -0.34405667 0 11
-1.7990503 -0.19990923 -0.34563825 0 11
-1.8155718 -0.22437678 -0.34931606 0 11
-1.8016912 -0.2451884 -0.34719926 0 11
-1.8178302 -0.27018976 -0.35092309 0 11
-1.8160779 -0.29279581 -0.3512533 0 11
-1.8053987 -0.31389636 -0.34990788 0 11
-1.7974364 -0.33533102 -0.34913743 0 11
-1.787221 -0.35621893 -0.3479777 0 11
-1.8027862 -0.3824265 -0.3518973 0 11
-1.8010145 -0.40525389 -0.35249755 0 11
-1.7928793 -0.42664993 -0.35190549 0 11
-1.7966797 -0.45096672 -0.35371312 0 11
-1.7914457 -0.47314176 -0.35380134 0 11
-1.7750216 -0.49222904 -0.35172644 0 11
-1.7929318 -0.5210191 -0.35651797 0 11
-1.799859 -0.54711902 -0.35920605 0 11
-1.7770236 -0.56413728 -0.35600615 0 11
-1.7780281 -0.58861744 -0.35763043 0 11
-1.7758887 -0.61223865 -0.35868722 0 11
-1.7735059 -0.63592088 -0.35975814 0 11
-1.7539414 -0.65335369 -0.35739213 0 11
-1.7575386 -0.67941719 -0.35980025 0 11
-1.7775217 -0.71238571 -0.36565682 0 11
-1.7671398 -0.73356962 -0.36534911 0 11
-1.7634194 -0.75757605 -0.36647815 0 11
-1.7516625 -0.77817535 -0.36599576 0 11
-1.7857217 -0.8197422 -0.3751899 0 11
-1.7119097 -0.81148964 -0.36175078 0 11
-1.6604128 -0.81223029 -0.35295257 0 11
-1.6149706 -0.81476051 -0.34539652 0 11
-1.5717986 -0.81737834 -0.33828729 0 11
-1.5250038 -0.8170203 -0.3303532 0 11
-1.4699388 -0.81093663 -0.32056063 0 11
-1.4344672 -0.8145321 -0.31498551 0 11
-1.3755294 -0.8035906 -0.30419055 0 11
-1.3448696 -0.80802065 -0.2995849 0 11
-1.3381817 -0.82656401 -0.30033651 0 11
-1.3212112 -0.83869809 -0.29881972 0 11
-1.3323696 -0.86894751 -0.30373707 0 11
-1.3195558 -0.88390505 -0.30327082 0 11
-1.3161894 -0.90529126 -0.30503249 0 11
-1.3006084 -0.91833425 -0.30401555 0 11
-1.2963566 -0.9394291 -0.30569875 0 11
-1.2849048 -0.95544404 -0.30574566 0 11
-1.2822998 -0.97821915 -0.30796474 0 11
-1.2714961 -0.99494547 -0.30828503 0 11
-1.2550282 -1.0071828 -0.30727181 0 11
-1.2497758 -1.0284847 -0.30905882 0 11
-1.242878 -1.0487033 -0.31051847 0 11
-1.2341937 -1.0676291 -0.31160516 0 11
-1.2102216 -1.0731891 -0.3088612 0 11
-1.2022108 -1.0927843 -0.31022269 0 11
-1.1990185 -1.1171125 -0.31291988 0 11
-1.1884671 -1.1348977 -0.31378451 0 11
-1.17787 -1.1527983 -0.31470546 0 11
-1.1535432 -1.1570992 -0.3119837 0 11
-1.1578319 -1.1903203 -0.31707826 0 11
-1.1497078 -1.2114197 -0.31890872 0 11
-1.1347977 -1.2255419 -0.3189289 0 11
-1.1125648 -1.2315669 -0.31691265 0 11
-1.1084578 -1.257771 -0.32012409 0 11
-1.0965363 -1.2755245 -0.32118654 0 11
-1.0929158 -1.3033952 -0.32479602 0 11
-1.0723306 -1.3112607 -0.32344577 0 11
-1.0569996 -1.3254408 -0.32371303 0 11
-1.0502849 -1.3507633 -0.32671869 0 11
-1.0358191 -1.3665065 -0.32742104 0 11
-1.0211537 -1.3821368 -0.32813275 0 11
-1.0065655 -1.3980368 -0.32894424 0 11
-0.9877162 -1.4080501 -0.32841772 0 11
-0.97764665 -1.4307978 -0.3308945 0 11
-0.96156895 -1.4450978 -0.33144209 0 11
-0.96036178 -1.4824889 -0.33728397 0 11
-0.94165736 -1.4935445 -0.33713937 0 11
-0.92561764 -1.5089146 -0.33801413 0 11
-0.90780824 -1.5215449 -0.33831728 0 11
-0.89438206 -1.541816 -0.34035346 0 11
-0.88055068 -1.5619087 -0.34237283 0 11
-0.86975974 -1.5881015 -0.34574383 0 11
-0.8403405 -1.5801967 -0.34174746 0 11
-0.82881314 -1.6058433 -0.34506381 0 11
-0.81096911 -1.6198342 -0.34590122 0 11
-0.79796827 -1.6440581 -0.34895235 0 11
-0.77075726 -1.6389958 -0.3458401 0 11
-0.75945652 -1.6679167 -0.34994563 0 11
-0.84216952 -1.9115487 -0.3988592 0 11
-0.81666797 -1.9172181 -0.3979167 0 11
-0.79102409 -1.9222327 -0.3969087 0 11
-0.76614052 -1.9288204 -0.39629373 0 11
-0.73934883 -1.9302158 -0.39468271 0 11
-0.72073609 -1.9531883 -0.39753777 0 11
-0.69646549 -1.9613374 -0.3974233 0 11
-0.6755299 -1.9792241 -0.39933431 0 11
-0.64303595 -1.9626361 -0.3943623 0 11
-0.61694497 -1.9643108 -0.39314473 0 11
-0.59457326 -1.9778259 -0.39435658 0 11
-0.57669759 -2.0075719 -0.39884353 0 11
-0.56048626 -2.045593 -0.40499732 0 11
-0.56604522 -2.170238 -0.42826477 0 11
-0.56551331 -2.2827742 -0.44906595 0 11
-0.56137019 -2.3916667 -0.46909383 0 11
-1.7905595 -8.0734873 -1.5790701 0 11
-1.6862888 -8.0715942 -1.5745252 0 11
-1.5933284 -8.1244106 -1.5808867 0 11
-1.4838123 -8.0915737 -1.5708281 0 11
-1.390371 -8.1452999 -1.5778197 0 11
-1.2869955 -8.142045 -1.5740045 0 11
-1.1930631 -8.2003889 -1.582328 0 11
-1.0855426 -8.1647816 -1.5727626 0 11
-0.9823792 -8.1551733 -1.5684663 0 11
-0.88829732 -8.2246389 -1.5796064 0 11
-0.7836743 -8.1990595 -1.5727239 0 11
-0.68122351 -8.189086 -1.5690854 0 11
-0.5832516 -8.2359409 -1.5765697 0 11
-0.48085672 -8.2239256 -1.5730189 0 11
-0.37876213 -8.2088299 -1.5691221 0 11
-0.28035375 -8.2883205 -1.5835382 0 11
-0.17769638 -8.257369 -1.5770879 0 11
-0.076121174 -8.2553558 -1.5764054 0 11
0.025361715 -8.2469101 -1.5747331 0 11
0.12662597 -8.2372541 -1.5730678 0 11
0.22780222 -8.2316179 -1.5724075 0 11
0.070959114 -1.7746818 -0.33914158 0 11
0.092598982 -1.7703211 -0.33850026 0 11
0.11405469 -1.7643408 -0.3375994 0 11
0.13611268 -1.76765 -0.33852729 0 11
0.15818605 -1.7697525 -0.33927679 0 11
0.18165696 -1.7845985 -0.34252524 0 11
0.20234942 -1.7714063 -0.34044504 0 11
0.22403626 -1.7681667 -0.34032616 0 11
1.1327206 -8.1362629 -1.5685815 0 11
1.2364615 -8.1466703 -1.5734001 0 11
1.331197 -8.0983734 -1.5671154 0 11
0.31738195 -1.7927879 -0.34765109 0 11
0.33621171 -1.7719401 -0.34438404 0 11
0.3460879 -1.7089825 -0.33294988 0 11
0.35952872 -1.6695569 -0.32610551 0 11
0.40362358 -1.7683812 -0.34635156 0 11
0.42382997 -1.7570401 -0.34512499 0 11
0.29348442 -1.1542289 -0.22741 0 11
0.29103854 -1.088396 -0.21512821 0 11
0.29359022 -1.0462179 -0.20748934 0 11
0.29654381 -1.0088884 -0.20079403 0 11
0.34442896 -1.1206826 -0.22386988 0 11
0.34283876 -1.068541 -0.21427989 0 11
0.34176463 -1.0218291 -0.20573972 0 11
0.36110511 -1.037086 -0.20968978 0 11
0.37347624 -1.0315924 -0.20949173 0 11
0.3899852 -1.0371698 -0.21158224 0 11
0.67904055 -1.7406424 -0.35676673 0 11
0.70390731 -1.7408571 -0.3585577 0 11
0.95065826 -2.2703714 -0.46999195 0 11
0.97554284 -2.2516813 -0.46857068 0 11
1.0080034 -2.2503407 -0.47083548 0 11
1.0543984 -2.2784054 -0.47938389 0 11
3.5453761 -7.4202948 -1.570308 0 11
3.6330712 -7.3695011 -1.5688944 0 11
0.89334816 -1.7572948 -0.37642094 0 11
0.91009396 -1.7370287 -0.37444869 0 11
0.94105774 -1.7436333 -0.37833834 0 11
0.96300375 -1.7329712 -0.37856564 0 11
0.97426325 -1.7035568 -0.37472877 0 11
1.0019015 -1.7029487 -0.37727648 0 11
1.0251323 -1.6944149 -0.37814993 0 11
0.96519202 -1.5519304 -0.34897342 0 11
0.96792233 -1.5144751 -0.34320143 0 11
0.96962827 -1.4768077 -0.3373419 0 11
0.97421163 -1.4447513 -0.33273062 0 11
0.96819168 -1.3984175 -0.32477707 0 11
0.96903771 -1.363507 -0.31941253 0 11
0.97452176 -1.3361226 -0.31578079 0 11
0.97242111 -1.2993789 -0.3098993 0 11
0.98044991 -1.2770677 -0.30743024 0 11
1.0164294 -1.29076 -0.31371149 0 11
0.96985584 -1.2009377 -0.29475692 0 11
0.96498668 -1.1652993 -0.28890038 0 11
0.96546561 -1.1371208 -0.28483608 0 11
0.96901846 -1.1132667 -0.28182429 0 11
0.97258008 -1.0900007 -0.27894095 0 11
0.96422029 -1.0542467 -0.27280471 0 11
0.96274239 -1.026985 -0.26879334 0 11
0.97196978 -1.0116071 -0.26787636 0 11
0.96991426 -0.98493606 -0.26395202 0 11
0.96905708 -0.96016026 -0.26048604 0 11
0.97500712 -0.94258243 -0.25895029 0 11
0.96514481 -0.91035831 -0.25333878 0 11
0.98102975 -0.90280718 -0.25457516 0 11
0.99873513 -0.89667314 -0.25628909 0 11
1.0247011 -0.89747745 -0.26010075 0 11
0.70626289 -0.60339248 -0.17737456 0 11
0.7134763 -0.59453613 -0.17733672 0 11
0.71557766 -0.58152944 -0.17606837 0 11
0.73081529 -0.57913882 -0.17805192 0 11
0.74776226 -0.57774395 -0.18043631 0 11
0.727566 -0.54798704 -0.17392382 0 11
0.73548913 -0.53991026 -0.17421761 0 11
0.7615118 -0.54473209 -0.17878152 0 11
0.76611197 -0.53390598 -0.17830671 0 11
0.7605933 -0.51628315 -0.17553146 0 11
0.77711982 -0.51365799 -0.17787439 0 11
0.79070675 -0.50878054 -0.17953874 0 11
0.79169297 -0.49575755 -0.17836501 0 11
0.78112811 -0.47587249 -0.17465326 0 11
0.78845835 -0.46714348 -0.17499465 0 11
0.7856344 -0.45251307 -0.17311983 0 11
0.80348814 -0.4497312 -0.17582212 0 11
0.80704755 -0.43877971 -0.1754071 0 11
0.82966864 -0.43794858 -0.17913967 0 11
0.83394843 -0.42718035 -0.17891605 0 11
0.82073402 -0.40775099 -0.17499211 0 11
0.83483577 -0.40203533 -0.17693137 0 11
0.84023774 -0.39198363 -0.17704134 0 11
0.84157997 -0.380081 -0.17632605 0 11
0.85051239 -0.37159321 -0.17722681 0 11
0.85023779 -0.35908914 -0.17623617 0 11
0.8434155 -0.34405002 -0.17393199 0 11
0.85652673 -0.33717489 -0.17576754 0 11
0.86584455 -0.32860544 -0.17683709 0 11
0.87055796 -0.31820449 -0.17698722 0 11
0.87083083 -0.30621976 -0.17626385 0 11
0.87045014 -0.29411069 -0.1754415 0 11
0.87869275 -0.28490719 -0.17638339 0 11
0.88869685 -0.27612218 -0.17769656 0 11
0.88518375 -0.26314068 -0.1763338 0 11
0.90008861 -0.25556937 -0.1786634 0 11
0.88741553 -0.24022019 -0.17554826 0 11
0.89059138 -0.22936529 -0.1756053 0 11
0.90330082 -0.22083175 -0.17756248 0 11
0.89731741 -0.20771073 -0.17587095 0 11
0.90266329 -0.19728705 -0.17642991 0 11
0.90669358 -0.18651752 -0.17675601 0 11
0.90537322 -0.17467117 -0.17606658 0 11
0.90517092 -0.16311479 -0.17562392 0 11
0.91400903 -0.15312904 -0.17695999 0 11
0.91028893 -0.14102194 -0.17589073 0 11
0.90305126 -0.12855144 -0.17417362 0 11
0.91880095 -0.11928663 -0.17691502 0 11
0.91599733 -0.10748751 -0.17610738 0 11
0.91371328 -0.095845737 -0.17542839 0 11
0.79799175 -0.07379923 -0.15302464 0 11
0.90216494 -0.072257675 -0.17281768 0 11
1.0095042 -0.068374194 -0.19320381 0 11
1.2652431 -0.070079111 -0.24196512 0 11
1.5985163 -0.068835422 -0.30551535 0 11
8.1905451 -0.25185364 -1.5647023 0 11
8.188509 -0.15104416 -1.5638402 0 11
8.191637 -0.050362211 -1.564201 0 11
8.1939745 0.050376583 -1.5646474 0 11
8.1889191 0.15105173 -1.5639186 0 11
8.1946812 0.25198081 -1.5654924 0 11
8.2041521 0.35328773 -1.568013 0 11
8.1947851 0.45389166 -1.567171 0 11
8.1927071 0.55489588 -1.5679599 0 11
8.1203661 0.65038973 -1.555528 0 11
8.1203938 0.75098377 -1.5571846 0 11
8.1145191 0.85118836 -1.5579474 0 11
8.1109276 0.95177507 -1.5593868 0 11
8.1203995 1.05426 -1.5635821 0 11
8.1087847 1.1543043 -1.5639604 0 11
8.1157656 1.2572942 -1.5681702 0 11
8.036603 1.346417 -1.5559553 0 11
8.0567226 1.451848 -1.563189 0 11
8.0684729 1.5566285 -1.569064 0 11
8.0640955 1.6588793 -1.5720607 0 11
7.9750533 1.7430363 -1.5587628 0 11
7.9725661 1.8454869 -1.5625939 0 11
7.9727535 1.9491149 -1.5672097 0 11
7.8964977 2.033685 -1.5570179 0 11
7.9020014 2.1390433 -1.5631713 0 11
7.8981013 2.2425711 -1.5677364 0 11
7.829143 2.3273878 -1.5596112 0 11
7.8313055 2.4332225 -1.5658839 0 11
7.7619901 2.5167465 -1.5580943 0 11
7.7741313 2.6267502 -1.5668966 0 11
7.6910567 2.7044902 -1.5567378 0 11
7.6933799 2.8120677 -1.5640887 0 11
7.6372824 2.8985023 -1.5598121 0 11
7.6345677 3.0053756 -1.5666869 0 11
7.5613561 3.0844641 -1.5593284 0 11
7.5570021 3.1916218 -1.5664054 0 11
7.5059795 3.2794008 -1.5640699 0 11
7.4430823 3.3615036 -1.5594589 0 11
7.4432445 3.4723861 -1.5683203 0 11
7.3704257 3.5494065 -1.5620551 0 11
7.3150063 3.634187 -1.5596628 0 11
7.3114753 3.7452178 -1.5686105 0 11
7.2471514 3.8254788 -1.5647842 0 11
7.2006311 3.9148757 -1.5650153 0 11
7.1194072 3.9848998 -1.5578939 0 11
7.0715256 4.0730877 -1.5582582 0 11
7.0288692 4.1644435 -1.5600246 0 11
6.9658599 4.2436843 -1.5575039 0 11
6.9722772 4.3660345 -1.5708239 0 11
6.9032068 4.4418707 -1.5674496 0 11
6.8479724 4.5263491 -1.5674274 0 11
6.7482972 4.5806766 -1.5573875 0 11
6.7094326 4.6758261 -1.5615692 0 11
6.6549635 4.7604933 -1.562398 0 11
6.5944543 4.8408785 -1.562049 0 11
6.5517912 4.9346676 -1.5661981 0 11
6.5072803 5.0277238 -1.570218 0 11
6.4176331 5.085691 -1.5635577 0 11
6.3682623 5.1753044 -1.5669153 0 11
6.2622948 5.2183385 -1.5565126 0 11
6.2337761 5.3257985 -1.5655832 0 11
6.178977 5.4118142 -1.5684149 0 11
6.0901637 5.467802 -1.5628194 0 11
6.0188432 5.5389299 -1.5618773 0 11
5.9745622 5.635416 -1.5682499 0 11
5.8977146 5.701581 -1.5663629 0 11
5.8150549 5.7616673 -1.5631077 0 11
5.7378883 5.826756 -1.5615064 0 11
5.6754746 5.9069228 -1.5641695 0 11
5.5959711 5.9693832 -1.5623699 0 11
5.5359235 6.0527959 -1.5662665 0 11
5.4594326 6.118556 -1.5657932 0 11
5.3910675 6.1935825 -1.5679101 0 11
5.2988486 6.2409582 -1.5632906 0 11
5.2382665 6.3256297 -1.5682467 0 11
5.1397443 6.3643618 -1.5620623 0 11
5.0795355 6.4504838 -1.5677514 0 11
5.0020432 6.5153227 -1.5684425 0 11
4.9153595 6.5680537 -1.5664679 0 11
4.8343287 6.628129 -1.5664997 0 11
4.7555075 6.6913476 -1.567502 0 11
4.6786284 6.7576241 -1.5694323 0 11
4.582243 6.795445 -1.5650116 0 11
4.5084386 6.8666492 -1.568524 0 11
4.4166512 6.9105835 -1.5660359 0 11
4.3270216 6.9574103 -1.5644716 0 11
4.2555819 7.0339417 -1.5697954 0 11
4.168129 7.0846386 -1.5695525 0 11
4.0738902 7.1234374 -1.5669316 0 11
4.0018954 7.201602 -1.5731819 0 11
3.9131939 7.2505383 -1.5732417 0 11
3.8157597 7.2828569 -1.5699546 0 11
3.7110877 7.3000374 -1.5637029 0 11
3.6328549 7.3690624 -1.568801 0 11
3.5475409 7.4248257 -1.5712669 0 11
3.4550936 7.4659667 -1.5708636 0 11
3.3546491 7.4891648 -1.5669469 0 11
3.260581 7.5258508 -1.5661155 0 11
3.175113 7.5828366 -1.5697308 0 11
3.0864866 7.6332946 -1.5722007 0 11
2.9994826 7.6888289 -1.5759231 0 11
2.891253 7.6893187 -1.5686179 0 11
2.812108 7.767426 -1.5773785 0 11
2.7004664 7.755681 -1.5681313 0 11
2.601018 7.7766857 -1.5657932 0 11
2.5020928 7.7983856 -1.5638494 0 11
2.424062 7.88727 -1.5755774 0 11
2.3247383 7.9091225 -1.5741132 0 11
2.2278252 7.9389248 -1.5744734 0 11
2.1161349 7.913703 -1.5641925 0 11
2.0220141 7.9522696 -1.5667825 0 11
1.9286064 7.9952788 -1.5704652 0 11
1.8345166 8.0375004 -1.5742086 0 11
1.7288551 8.028348 -1.5681338 0 11
1.6330825 8.0641623 -1.5710882 0 11
1.5400218 8.1163931 -1.5774553 0 11
1.4327433 8.0931034 -1.5693861 0 11
1.3310975 8.0977678 -1.5669981 0 11
1.2386354 8.1609936 -1.5761665 0 11
1.1347102 8.1505537 -1.5713367 0 11
1.0318668 8.1438265 -1.5674751 0 11
0.93841439 8.2150621 -1.5788457 0 11
0.83570099 8.2099285 -1.575765 0 11
0.73291147 8.1996603 -1.5719455 0 11
0.63130903 8.1986008 -1.5701355 0 11
0.53108317 8.2154589 -1.5719945 0 11
0.42934453 8.2082729 -1.5694907 0 11
0.32896033 8.227272 -1.5722312 0 11
0.2279934 8.2385254 -1.573727 0 11
0.12666993 8.2401142 -1.5736139 0 11
0.025307799 8.2293777 -1.5713854 0 11
-0.076057725 8.2484741 -1.5750915 0 11
-0.17802992 8.2728682 -1.5800481 0 11
-0.27928719 8.2567892 -1.5775138 0 11
-0.37911814 8.2165461 -1.5705971 0 11
-0.4811134 8.2283154 -1.5738586 0 11
-0.58320636 8.235302 -1.5764475 0 11
-0.68052626 8.1807041 -1.5674794 0 11
-0.78291965 8.191164 -1.5712094 0 11
-0.88971484 8.2377644 -1.5821271 0 11
-0.98335516 8.1632748 -1.5700246 0 11
-1.0868608 8.174696 -1.5746723 0 11
-1.1909189 8.1856508 -1.5794841 0 11
-1.2864881 8.138834 -1.5733839 0 11
-1.3913784 8.1512022 -1.578963 0 11
-1.485329 8.0998449 -1.5724337 0 11
-1.5935986 8.1257887 -1.5811548 0 11
-1.6874371 8.0770903 -1.5755973 0 11
-1.7902677 8.0721722 -1.5788127 0 11
-1.8853879 8.0325241 -1.5754734 0 11
-1.977011 7.9804835 -1.5699159 0 11
-2.0831606 7.9869142 -1.5761008 0 11
-2.181767 7.9627419 -1.5765057 0 11
-2.2908459 7.974782 -1.5843468 0 11
-2.3827612 7.9261675 -1.5803901 0 11
-2.4698203 7.863739 -1.573879 0 11
-2.56355 7.8243151 -1.5721787 0 11
-2.670584 7.824501 -1.5786952 0 11
-2.7672324 7.7928863 -1.5790626 0 11
-2.850589 7.72507 -1.5723047 0 11
-2.9506383 7.7032232 -1.5751238 0 11
-3.0666056 7.7204266 -1.5862319 0 11
-3.1491902 7.6527085 -1.5801554 0 11
-3.2412937 7.6092939 -1.5793014 0 11
-3.3293014 7.556818 -1.5767876 0 11
-3.4129248 7.4954576 -1.5726222 0 11
-3.5036595 7.4504437 -1.572098 0 11
-3.6332402 7.4855833 -1.5888196 0 11
-3.7155261 7.4214125 -1.5847768 0 11
-3.8049576 7.3721871 -1.5841365 0 11
-3.8883414 7.3117323 -1.5813004 0 11
-3.9753802 7.2586799 -1.5802792 0 11
-4.0654521 7.2112432 -1.5807158 0 11
-4.1497016 7.1536279 -1.5791522 0 11
-4.2477884 7.1195664 -1.5830438 0 11
-4.3357186 7.0679607 -1.583304 0 11
-4.4323425 7.0300522 -1.5869012 0 11
-4.5190449 6.9759479 -1.5871117 0 11
-4.6085548 6.9259853 -1.5885174 0 11
-4.6902847 6.8642893 -1.5874748 0 11
-4.7303782 6.7434444 -1.5728607 0 11
-4.8289456 6.7070093 -1.5780929 0 11
-4.917417 6.6557498 -1.5801399 0 11
-5.0054975 6.6035128 -1.5822313 0 11
-5.0882068 6.5439038 -1.5828203 0 11
-5.1819582 6.4979954 -1.5870085 0 11
-5.2322645 6.3980851 -1.5782014 0 11
-5.3075309 6.3296828 -1.5773081 0 11
-5.4077115 6.2904148 -1.5839733 0 11
-5.4952345 6.2354627 -1.587031 0 11
-5.5325403 6.1243114 -1.575937 0 11
-5.6169224 6.0660806 -1.5786065 0 11
-5.7141776 6.0208926 -1.5850123 0 11
-5.7604504 5.9220867 -1.5775292 0 11
-5.853828 5.8718734 -1.5832081 0 11
-5.9311242 5.8048763 -1.5846885 0 11
-5.9850826 5.7153091 -1.5802088 0 11
-6.0750103 5.6600208 -1.5854564 0 11
-6.1004086 5.5451427 -1.5741707 0 11
-6.198277 5.4964509 -1.5818651 0 11
-6.2983851 5.4483662 -1.5901954 0 11
-6.3355594 5.3457556 -1.5828651 0 11
-6.4346342 5.2952886 -1.5912298 0 11
-6.4715676 5.1935501 -1.5844507 0 11
-6.499732 5.0860391 -1.5759152 0 11
-6.5989537 5.0340981 -1.584844 0 11
-6.6379547 4.9359255 -1.5795145 0 11
-6.7400947 4.8843365 -1.5894073 0 11
-6.7789946 4.7865162 -1.5845813 0 11
-6.8173075 4.6890278 -1.57994 0 11
-6.5717692 4.4021025 -1.5103762 0 11
-6.5811157 4.2920856 -1.5002811 0 11
-6.5862255 4.180902 -1.4896135 0 11
-6.5983233 4.0756321 -1.4809029 0 11
-6.6148229 3.974299 -1.4735266 0 11
-6.6265388 3.8712542 -1.4654214 0 11
-6.6310549 3.7653055 -1.4560711 0 11
-6.6372724 3.661654 -1.4474401 0 11
-6.6540375 3.5648987 -1.4414277 0 11
-6.6772676 3.472362 -1.437102 0 11
-6.6847949 3.3725116 -1.4296886 0 11
-6.686511 3.2708654 -1.4213462 0 11
-6.7013278 3.1766033 -1.4160856 0 11
-6.7013502 3.0762796 -1.4079903 0 11
-6.712122 2.9818573 -1.4024438 0 11
-6.7280002 2.8903913 -1.3982296 0 11
-6.7332578 2.7950892 -1.3920741 0 11
-6.7536755 2.7067022 -1.3893093 0 11
-6.7527804 2.6104436 -1.3824176 0 11
-6.7693548 2.521625 -1.3793585 0 11
-6.7795758 2.4309328 -1.3752464 0 11
-6.7746458 2.3355629 -1.3683171 0 11
-6.7935309 2.2490032 -1.3664426 0 11
-6.7943339 2.1569424 -1.3611665 0 11
-6.815239 2.0716884 -1.3601482 0 11
-6.9764137 2.027319 -1.3872344 0 11
-7.507319 2.0818453 -1.4876003 0 11
-8.0324984 2.1214767 -1.5863771 0 11
-8.0645838 2.0242109 -1.5876781 0 11
-8.068635 1.920086 -1.5837078 0 11
-8.118577 1.8267952 -1.5889812 0 11
-8.1353102 1.7257499 -1.5879829 0 11
-8.1682959 1.6280591 -1.5903935 0 11
-8.1527653 1.5209857 -1.5836085 0 11
-8.1906786 1.4240756 -1.5874515 0 11
-8.1932964 1.320958 -1.584691 0 11
-8.2295542 1.2231843 -1.5886745 0 11
-8.2352877 1.1207231 -1.5870011 0 11
-8.2382069 1.0181158 -1.5850312 0 11
-8.2465916 0.91635549 -1.5843567 0 11
-8.2714205 0.8162899 -1.5870786 0 11
-8.2815733 0.71459055 -1.5872205 0 11
-8.2734184 0.6115042 -1.5840967 0 11
-8.29179 0.51043844 -1.5862926 0 11
-8.3052454 0.40883204 -1.587785 0 11
-8.2626171 0.304948 -1.578799 0 11
-8.2883701 0.20388824 -1.5831213 0 11
-8.2996712 0.10207869 -1.5849202 0 11
-8.3089046 2.2048425e-05 -1.5865635 0 11
-8.7649927 -2.3258694e-05 -1.5901847 0 12
-1.9012064 -0.023383176 -0.3449516 0 12
-1.8966964 -0.046657436 -0.34421137 0 12
-1.9195658 -0.070845321 -0.34849346 0 12
-1.9085157 -0.093948141 -0.34667084 0 12
-1.8977746 -0.11682604 -0.34495464 0 12
-1.895134 -0.14007299 -0.34476167 0 12
-1.9055626 -0.16442491 -0.34700042 0 12
-1.9014348 -0.18764877 -0.34664273 0 12
-1.9023533 -0.21138817 -0.34725779 0 12
-1.8798516 -0.23232079 -0.34364581 0 12
-1.8799517 -0.25583872 -0.34421316 0 12
-1.8840503 -0.28003225 -0.34556794 0 12
-1.8790884 -0.30295461 -0.34531504 0 12
-1.8862692 -0.32795694 -0.34734946 0 12
-1.8766011 -0.35010007 -0.34633568 0 12
-1.8696389 -0.37264603 -0.34587032 0 12
-1.8594165 -0.39443952 -0.34485042 0 12
-1.8567969 -0.4178057 -0.34529129 0 12
-1.8561012 -0.44169474 -0.34614575 0 12
-1.8512605 -0.46466652 -0.34628239 0 12
-1.8469926 -0.48781234 -0.34657988 0 12
-1.8342611 -0.50865668 -0.3453384 0 12
-1.8259606 -0.53061712 -0.34497803 0 12
-1.8236914 -0.55436355 -0.34581104 0 12
-1.8140881 -0.57590389 -0.34530675 0 12
-1.8205492 -0.60269409 -0.34792098 0 12
-1.7974715 -0.61967933 -0.34494078 0 12
-1.8186152 -0.65209556 -0.35051063 0 12
-1.7960331 -0.66903305 -0.34771755 0 12
-1.800656 -0.69608527 -0.35024321 0 12
-1.7747629 -0.71128005 -0.34688175 0 12
-1.7555671 -0.72876555 -0.34485531 0 12
-1.7534157 -0.75327843 -0.34622607 0 12
-1.7307693 -0.76889354 -0.34359527 0 12
-1.7906492 -0.8220042 -0.35746232 0 12
-1.7247787 -0.81758988 -0.34629354 0 12
-1.6987772 -0.83099723 -0.34309873 0 12
-1.6962872 -0.85578513 -0.34469509 0 12
-1.7075776 -0.88798714 -0.3491818 0 12
-1.5222088 -0.81552291 -0.31330276 0 12
-1.4773321 -0.81501544 -0.30610576 0 12
-1.476867 -0.83860797 -0.30812272 0 12
-1.7163564 -1.0027033 -0.36063316 0 12
-2.4830127 -1.4918365 -0.52553427 0 12
-2.4767559 -1.529835 -0.52815157 0 12
-1.3875664 -0.88082004 -0.29817632 0 12
-1.3799899 -0.90000463 -0.29890376 0 12
-1.3711457 -0.91846257 -0.29941174 0 12
-1.3567421 -0.93318385 -0.2987496 0 12
-1.3608017 -0.96083558 -0.30222225 0 12
-1.3452145 -0.97483498 -0.30139992 0 12
-1.3443896 -0.99967641 -0.30394629 0 12
-1.3364143 -1.0195011 -0.30495441 0 12
-1.3084797 -1.0238851 -0.3014302 0 12
-1.3098111 -1.0511471 -0.30469146 0 12
-1.3002638 -1.0700331 -0.3055082 0 12
-1.2940044 -1.0918423 -0.30716878 0 12
-1.288102 -1.1142621 -0.30899677 0 12
-1.2770436 -1.132445 -0.30966103 0 12
-1.2490885 -1.1353951 -0.30624464 0 12
-1.2496483 -1.1642838 -0.30986854 0 12
-1.2364472 -1.1807152 -0.31017178 0 12
-1.2239757 -1.1979226 -0.31071487 0 12
-1.2201385 -1.2238998 -0.31353757 0 12
-1.2017751 -1.2354965 -0.31269902 0 12
-1.1961174 -1.2603204 -0.3152355 0 12
-1.1849923 -1.2797505 -0.31642687 0 12
-1.1602136 -1.2843122 -0.31400356 0 12
-1.1529559 -1.3082632 -0.31636924 0 12
-1.1343815 -1.3195472 -0.31570092 0 12
-1.1255385 -1.3423005 -0.31780937 0 12
-1.1254526 -1.376219 -0.32253909 0 12
-1.1025726 -1.3825876 -0.32082993 0 12
-1.0783551 -1.3868643 -0.31872126 0 12
-1.0765555 -1.420248 -0.32332665 0 12
-1.0740037 -1.4536697 -0.32790396 0 12
-1.0561756 -1.4669412 -0.32794327 0 12
-1.0446403 -1.4891987 -0.33002245 0 12
-1.0194142 -1.491925 -0.32782394 0 12
-1.0043477 -1.509388 -0.32892257 0 12
-0.98660398 -1.5229982 -0.32921988 0 12
-0.97570515 -1.547547 -0.33190787 0 12
-0.96497703 -1.5730771 -0.33481318 0 12
-0.95036292 -1.5928694 -0.33651304 0 12
-0.92190319 -1.5892593 -0.33333027 0 12
-0.91008449 -1.6142955 -0.33620876 0 12
-0.89804524 -1.6397482 -0.33918428 0 12
-0.87779814 -1.6506331 -0.33917749 0 12
-0.86345184 -1.6729565 -0.34155706 0 12
-0.98147506 -1.9604036 -0.39774927 0 12
-0.95014971 -1.9575984 -0.3947798 0 12
-0.93920869 -1.9972035 -0.40040749 0 12
-0.90663981 -1.9911603 -0.39693081 0 12
-0.88644445 -2.0120437 -0.39889079 0 12
-0.86372966 -2.0277007 -0.39985898 0 12
-0.83782232 -2.0359552 -0.39942497 0 12
-0.8080166 -2.0342469 -0.39711055 0 12
-0.77904737 -2.0338569 -0.39513451 0 12
-0.75854743 -2.0556567 -0.39752755 0 12
-0.73596746 -2.0725801 -0.39902002 0 12
-0.70707077 -2.0716352 -0.39713421 0 12
-0.68187177 -2.0811684 -0.39732435 0 12
-0.65565056 -2.0875466 -0.39697286 0 12
-0.63460219 -2.1109807 -0.39991498 0 12
-0.60465854 -2.104908 -0.39732596 0 12
-0.58213073 -2.1245885 -0.39965945 0 12
-0.56005299 -2.1472638 -0.40259904 0 12
-0.5645538 -2.2789011 -0.42594647 0 12
-0.56618547 -2.4121816 -0.44952253 0 12
-1.8804247 -8.4786825 -1.575618 0 12
-1.7803477 -8.5218172 -1.5794463 0 12
-1.6817459 -8.5752544 -1.5853977 0 12
-1.5685436 -8.5536327 -1.5777153 0 12
-1.4696842 -8.6099463 -1.5846491 0 12
-1.3568164 -8.5837593 -1.5766395 0 12
-1.2591938 -8.6549311 -1.5867482 0 12
-1.1478274 -8.6332493 -1.5800662 0 12
-1.0445457 -8.6712446 -1.5845495 0 12
-0.93606275 -8.666894 -1.5815315 0 12
-0.82557857 -8.637475 -1.5741918 0 12
-0.72348714 -8.6971426 -1.5833251 0 12
-0.61381 -8.667448 -1.5764259 0 12
-0.5060097 -8.654108 -1.5727491 0 12
-0.40233117 -8.7196369 -1.5836393 0 12
-0.29469696 -8.7123604 -1.58154 0 12
-0.1869591 -8.6877985 -1.5765448 0 12
-0.079920791 -8.6674252 -1.5725504 0 12
0.026608583 -8.6523552 -1.569757 0 12
0.027054455 -1.7599425 -0.31933448 0 12
0.048873208 -1.76603 -0.32052386 0 12
0.070682764 -1.7677705 -0.32097322 0 12
0.093415312 -1.7859278 -0.32445407 0 12
0.11488272 -1.7771496 -0.32309154 0 12
0.13610569 -1.7675593 -0.32162791 0 12
0.15835449 -1.771637 -0.32269984 0 12
0.18016905 -1.7699813 -0.32277739 0 12
0.20229115 -1.7708962 -0.32337341 0 12
0.22614166 -1.7847831 -0.32639232 0 12
1.196403 -8.5936899 -1.5741429 0 12
1.3042419 -8.593255 -1.5768818 0 12
1.4136969 -8.6002636 -1.5812382 0 12
0.31294844 -1.7677443 -0.32569909 0 12
0.33960322 -1.7898144 -0.33050981 0 12
0.34009182 -1.6793737 -0.31086442 0 12
0.35857376 -1.6651222 -0.30901915 0 12
0.40574142 -1.77766 -0.33080521 0 12
0.29564518 -1.225634 -0.22873777 0 12
0.29689908 -1.1676583 -0.21858269 0 12
0.29430601 -1.1006153 -0.20669423 0 12
0.29336745 -1.0454241 -0.19699197 0 12
0.29456773 -1.0021654 -0.18950884 0 12
0.34165552 -1.1116586 -0.2109924 0 12
0.34334329 -1.0701135 -0.20389307 0 12
0.34229088 -1.0234026 -0.19578019 0 12
0.36744937 -1.0553066 -0.20273256 0 12
0.38333049 -1.0588111 -0.20429589 0 12
0.39087021 -1.0395236 -0.20148654 0 12
0.68996793 -1.7686534 -0.34442917 0 12
0.71410245 -1.766071 -0.34561011 0 12
0.74283314 -1.7740415 -0.34893107 0 12
0.77619344 -1.7915566 -0.35422653 0 12
0.79601663 -1.7770859 -0.35327402 0 12
3.6493125 -7.8856463 -1.5764205 0 12
3.7274754 -7.8014197 -1.5686271 0 12
3.8283582 -7.7656312 -1.5707778 0 12
3.929425 -7.7295265 -1.5731293 0 12
4.0138693 -7.6609735 -1.5691037 0 12
4.104147 -7.6043448 -1.567723 0 12
4.2023759 -7.5623765 -1.5696054 0 12
4.3012414 -7.5209746 -1.571871 0 12
4.4028406 -7.4835815 -1.5752519 0 12
4.4821701 -7.408464 -1.5709227 0 12
0.96628743 -1.5536917 -0.3319459 0 12
0.9621191 -1.5053949 -0.32413042 0 12
0.97530383 -1.4854519 -0.32239428 0 12
0.96832091 -1.4360154 -0.31422529 0 12
0.9676789 -1.3976768 -0.30841655 0 12
0.97461498 -1.3713547 -0.30522963 0 12
0.97385478 -1.3352082 -0.29982698 0 12
0.97235358 -1.2992885 -0.2944237 0 12
0.99364859 -1.2942593 -0.2960304 0 12
1.0116091 -1.2846388 -0.29665267 0 12
1.043125 -1.2916644 -0.30121428 0 12
0.96643686 -1.1670506 -0.27490503 0 12
0.97053128 -1.1430871 -0.27205089 0 12
0.96259332 -1.105885 -0.26599383 0 12
0.96117532 -1.0772191 -0.26192194 0 12
0.96562892 -1.0557867 -0.2595782 0 12
0.97404051 -1.0390371 -0.2583853 0 12
0.96620679 -1.0056092 -0.25300792 0 12
0.96129489 -0.97618324 -0.24855967 0 12
0.97344238 -0.96450526 -0.24861521 0 12
0.70573074 -0.68226111 -0.1780861 0 12
0.70733869 -0.66718656 -0.17640828 0 12
0.71585613 -0.65877724 -0.1764989 0 12
0.72270793 -0.64885354 -0.17620775 0 12
0.73773968 -0.64614421 -0.1779221 0 12
0.73417479 -0.62723893 -0.17518897 0 12
0.75308543 -0.62754226 -0.17784667 0 12
0.75745314 -0.61556047 -0.17707722 0 12
0.76438439 -0.6057409 -0.17694293 0 12
0.78423423 -0.6059233 -0.17979953 0 12
0.78122318 -0.58840042 -0.17743698 0 12
0.77771842 -0.5709101 -0.17503324 0 12
0.80085987 -0.5728789 -0.17864254 0 12
0.79413837 -0.55343765 -0.17561193 0 12
0.7986874 -0.54214102 -0.17513046 0 12
0.81483459 -0.53858656 -0.17720552 0 12
0.80812389 -0.51998758 -0.17434239 0 12
0.82963377 -0.51951605 -0.17759129 0 12
0.83236265 -0.5070852 -0.17682733 0 12
0.83980995 -0.4975681 -0.17709626 0 12
0.85890985 -0.49471858 -0.17982757 0 12
0.86850166 -0.48612082 -0.18057062 0 12
0.85444337 -0.46454811 -0.17644677 0 12
0.86268377 -0.45537597 -0.17697874 0 12
0.87355781 -0.4474698 -0.17806728 0 12
0.88018936 -0.43728915 -0.1783095 0 12
0.88836724 -0.42781469 -0.17888696 0 12
0.87588763 -0.40861484 -0.17534898 0 12
0.89238125 -0.40302429 -0.17764537 0 12
0.87174517 -0.38086993 -0.17259201 0 12
0.8939836 -0.37756476 -0.17606239 0 12
0.91037899 -0.37136611 -0.17837849 0 12
0.90917557 -0.35790032 -0.177267 0 12
0.92425251 -0.35077244 -0.17935209 0 12
0.93123436 -0.34038278 -0.17988113 0 12
0.91459805 -0.32161009 -0.17589037 0 12
0.92720461 -0.31328711 -0.17756052 0 12
0.93124032 -0.30194521 -0.17760892 0 12
0.93839175 -0.29156262 -0.17827561 0 12
0.92710662 -0.27560318 -0.17547457 0 12
0.92223775 -0.26185834 -0.17393044 0 12
0.93792641 -0.25389332 -0.17628713 0 12
0.95264184 -0.24534592 -0.17847243 0 12
0.94104719 -0.23005967 -0.17575696 0 12
0.96269059 -0.22284329 -0.17927392 0 12
0.95631701 -0.20901369 -0.17759497 0 12
0.9552505 -0.19650625 -0.17693481 0 12
0.95830488 -0.18488313 -0.17706607 0 12
0.97794908 -0.17622964 -0.18028171 0 12
0.96133149 -0.16105723 -0.17683986 0 12
0.96039432 -0.14878425 -0.17631759 0 12
0.96893424 -0.13793004 -0.17756061 0 12
0.9816888 -0.12745127 -0.17959717 0 12
0.97631431 -0.11456539 -0.17834271 0 12
0.95521098 -0.10019872 -0.17424954 0 12
0.79805005 -0.073804624 -0.1454037 0 12
0.9161697 -0.073379368 -0.16674796 0 12
1.0145566 -0.068716392 -0.18448718 0 12
1.2429298 -0.068843231 -0.22584361 0 12
1.6025813 -0.069010459 -0.291017 0 12
8.5829916 -0.26392111 -1.5579013 0 12
8.600523 -0.15864411 -1.5606112 0 12
8.5925083 -0.05282677 -1.5589215 0 12
8.5923338 0.052825693 -1.5588896 0 12
8.6006613 0.15864667 -1.5606365 0 12
8.5932064 0.26423523 -1.5597554 0 12
8.5804758 0.36949304 -1.5581516 0 12
8.5778637 0.47510958 -1.5586203 0 12
8.6014414 0.58257967 -1.5640879 0 12
8.582674 0.68741763 -1.5620941 0 12
8.5989428 0.79524052 -1.5667164 0 12
8.596837 0.90178204 -1.5682346 0 12
8.591033 1.0081129 -1.5693185 0 12
8.5999069 1.1165137 -1.5733284 0 12
8.5160961 1.212286 -1.5606047 0 12
8.5190563 1.3197719 -1.5640029 0 12
8.5012817 1.4242673 -1.5638368 0 12
8.5101404 1.5335553 -1.5688165 0 12
8.5077705 1.6413809 -1.5719815 0 12
8.4330292 1.7347733 -1.5619949 0 12
8.4264574 1.8416955 -1.5648539 0 12
8.4190073 1.9488291 -1.5678023 0 12
8.3376455 2.0383208 -1.5572007 0 12
8.3508739 2.1507065 -1.5644923 0 12
8.3485546 2.2599237 -1.5691452 0 12
8.2722368 2.3488021 -1.5601114 0 12
8.2838364 2.4625554 -1.5678914 0 12
8.2721205 2.5701857 -1.5715369 0 12
8.193944 2.6568031 -1.5627733 0 12
8.1958609 2.7692459 -1.5695148 0 12
8.1277943 2.8580651 -1.563092 0 12
8.1062908 2.9629941 -1.565845 0 12
8.048768 3.0546694 -1.5618712 0 12
8.0356417 3.16326 -1.5667535 0 12
7.9762511 3.25371 -1.5628564 0 12
7.9670353 3.364795 -1.569039 0 12
7.9044728 3.4535046 -1.564963 0 12
7.9045315 3.5699069 -1.5735465 0 12
7.8336606 3.6545212 -1.5682654 0 12
7.7802649 3.7467744 -1.5666809 0 12
7.750555 3.8505733 -1.570114 0 12
7.6923923 3.9403384 -1.5680283 0 12
7.628489 4.0267715 -1.5649772 0 12
7.5645299 4.1127219 -1.5621126 0 12
7.5613647 4.2322736 -1.572087 0 12
7.5011683 4.3205547 -1.5704987 0 12
7.4483457 4.4129734 -1.5706817 0 12
7.3813705 4.4968185 -1.5681002 0 12
7.3245745 4.5866427 -1.5678973 0 12
7.2491174 4.6644468 -1.5639045 0 12
7.1933746 4.7546515 -1.5643735 0 12
7.1376295 4.8449516 -1.5650883 0 12
7.0759711 4.9312677 -1.5647461 0 12
7.0251031 5.0252657 -1.5670435 0 12
6.9520965 5.1034179 -1.5646383 0 12
6.9116616 5.2057142 -1.5698259 0 12
6.8551378 5.2964892 -1.5716614 0 12
6.7526693 5.3511925 -1.5631365 0 12
6.7040582 5.4481959 -1.5672733 0 12
6.6394854 5.532649 -1.5679632 0 12
6.557951 5.602756 -1.56486 0 12
6.5094414 5.7012491 -1.5698944 0 12
6.4120526 5.7567968 -1.5633609 0 12
6.3825674 5.8736525 -1.5736628 0 12
6.2633553 5.9078155 -1.5620632 0 12
6.2244587 6.0174594 -1.5706977 0 12
6.1456509 6.0892282 -1.5695868 0 12
6.0639324 6.1578493 -1.5679362 0 12
5.9812956 6.2252154 -1.5662434 0 12
5.8948441 6.2881999 -1.5637348 0 12
5.8224692 6.3660955 -1.5651832 0 12
5.740984 6.4341002 -1.5644281 0 12
5.6664286 6.5099339 -1.5658067 0 12
5.6021476 6.5981827 -1.5703452 0 12
5.5313735 6.6795802 -1.5734109 0 12
5.4351325 6.7301302 -1.5694567 0 12
5.3607259 6.8075666 -1.572024 0 12
5.258965 6.8499718 -1.5667648 0 12
5.1716609 6.910531 -1.5659525 0 12
5.115149 7.0131493 -1.5748341 0 12
5.0206823 7.0644679 -1.5723758 0 12
4.9343615 7.1269946 -1.572669 0 12
4.8299489 7.1627917 -1.5673442 0 12
4.7550807 7.242301 -1.571829 0 12
4.6515737 7.2781587 -1.5670788 0 12
4.5847464 7.3718052 -1.5749847 0 12
4.4930243 7.426405 -1.5747269 0 12
4.3991656 7.4773355 -1.5739372 0 12
4.2915916 7.5041013 -1.5683446 0 12
4.201108 7.5600944 -1.5691317 0 12
4.1126757 7.6201463 -1.5709808 0 12
4.0202565 7.6731648 -1.5716007 0 12
3.9338002 7.7381325 -1.5748808 0 12
3.8292544 7.7674494 -1.5711455 0 12
3.7239113 7.7939601 -1.5671272 0 12
3.6500456 7.8872309 -1.5767373 0 12
3.54812 7.9210835 -1.5746639 0 12
3.4589424 7.9836946 -1.5785359 0 12
3.3440886 7.9863858 -1.5708189 0 12
3.2522266 8.0431919 -1.5740073 0 12
3.1453989 8.0628681 -1.5701702 0 12
3.0494757 8.1101131 -1.5719496 0 12
2.9507618 8.1504068 -1.5726078 0 12
2.8631968 8.2230387 -1.5797095 0 12
2.7595153 8.2505703 -1.5783606 0 12
2.6553903 8.2761745 -1.5768931 0 12
2.5480192 8.2905941 -1.5735518 0 12
2.4556677 8.3545656 -1.5798428 0 12
2.351748 8.3805275 -1.5791645 0 12
2.2359951 8.3619442 -1.5703632 0 12
2.1385088 8.4104252 -1.5744103 0 12
2.0395966 8.4554024 -1.5780159 0 12
1.9289474 8.4512262 -1.572691 0 12
1.829267 8.4946346 -1.5764637 0 12
1.71863 8.4865961 -1.5709312 0 12
1.6217464 8.5471077 -1.5783216 0 12
1.510463 8.5321169 -1.5720048 0 12
1.4120972 8.5905323 -1.5794489 0 12
1.3042625 8.5933914 -1.5769067 0 12
1.1946778 8.5812979 -1.5718731 0 12
1.0909232 8.6099186 -1.5745394 0 12
0.98869824 8.6552572 -1.5804878 0 12
0.88190633 8.6638508 -1.5799574 0 12
0.77517807 8.6725302 -1.5796826 0 12
0.6676476 8.6705179 -1.5777013 0 12
0.56129801 8.6828604 -1.5785719 0 12
0.45378172 8.6754665 -1.5760942 0 12
0.34758171 8.6929913 -1.5783821 0 12
0.24085975 8.7034502 -1.5796241 0 12
0.13394353 8.7132759 -1.5809888 0 12
0.026655067 8.6674709 -1.5724994 0 12
-0.080049209 8.6813517 -1.5750772 0 12
-0.18702798 8.6909981 -1.5771254 0 12
-0.29427004 8.6997395 -1.5792489 0 12
-0.40221381 8.7170935 -1.5831772 0 12
-0.50583315 8.6510878 -1.5722003 0 12
-0.61497629 8.6839161 -1.5794212 0 12
-0.72326899 8.69452 -1.5828477 0 12
-0.8261292 8.6432371 -1.5752418 0 12
-0.93574679 8.6639681 -1.5809977 0 12
-1.0443944 8.6699886 -1.5843201 0 12
-1.1456761 8.6170683 -1.5771047 0 12
-1.2560195 8.6331129 -1.5827482 0 12
-1.3575394 8.5883331 -1.5774797 0 12
-1.4690622 8.6063023 -1.5839784 0 12
-1.5721967 8.573554 -1.5813898 0 12
-1.6799189 8.565938 -1.5836754 0 12
-1.7820503 8.5299664 -1.5809567 0 12
-1.8779327 8.4674463 -1.57353 0 12
-1.9956402 8.502243 -1.584437 0 12
-2.0897703 8.4356527 -1.576697 0 12
-2.2086616 8.4680891 -1.5877157 0 12
-2.3046265 8.4111395 -1.5822318 0 12
-2.3995197 8.3530922 -1.5767436 0 12
-2.5217476 8.3885002 -1.5891604 0 12
-2.6137962 8.3221483 -1.5825596 0 12
-2.7080274 8.2652798 -1.5779583 0 12
-2.8014219 8.2078409 -1.5734499 0 12
-2.9288974 8.2481556 -1.5879624 0 12
-3.0149865 8.1705856 -1.5800465 0 12
-3.1195598 8.1442261 -1.5822475 0 12
-3.2079158 8.0761862 -1.576573 0 12
-3.3349667 8.1041555 -1.5899181 0 12
-3.4264064 8.0438671 -1.5862364 0 12
-3.5282192 8.0083199 -1.5876619 0 12
-3.6192999 7.9486985 -1.5845451 0 12
-3.715647 7.9012294 -1.5840707 0 12
-3.8064835 7.8425174 -1.5815642 0 12
-3.8961468 7.7821851 -1.5789393 0 12
-3.9895043 7.7297502 -1.5781348 0 12
-4.0923281 7.6953139 -1.5812583 0 12
-4.1716504 7.6170506 -1.575598 0 12
-4.2695947 7.5733485 -1.5772988 0 12
-4.3661079 7.5266881 -1.578643 0 12
-4.4633331 7.4808331 -1.5804172 0 12
-4.5544472 7.4245257 -1.5802336 0 12
-4.6528282 7.3797607 -1.5827633 0 12
-4.7391043 7.3156486 -1.5813917 0 12
-4.8340063 7.2648063 -1.5831308 0 12
-4.9304919 7.2158351 -1.5855511 0 12
-5.0188885 7.1547332 -1.5855658 0 12
-5.109139 7.0961747 -1.5863913 0 12
-5.2046318 7.0444961 -1.5890254 0 12
-5.3027411 6.9956517 -1.5925955 0 12
-5.3513732 6.8823605 -1.5816649 0 12
-5.436316 6.8169513 -1.5818759 0 12
-5.5264182 6.7577806 -1.5837946 0 12
-5.6239409 6.7070289 -1.5879877 0 12
-5.7226911 6.6568084 -1.5926378 0 12
-5.7673678 6.5442529 -1.5825564 0 12
-5.8589082 6.4855876 -1.5856718 0 12
-5.9538007 6.4298978 -1.5898353 0 12
-6.037384 6.3614478 -1.5911462 0 12
-6.0908899 6.2617979 -1.5848351 0 12
-6.1914291 6.2105155 -1.5910043 0 12
-6.2815585 6.1478519 -1.5946181 0 12
-6.3213444 6.0364137 -1.5857551 0 12
-6.4129381 5.9748645 -1.5901815 0 12
-6.4556303 5.8680315 -1.5827558 0 12
-6.5468097 5.8055196 -1.5874883 0 12
-6.5865784 5.6976652 -1.5800234 0 12
-6.6865554 5.6419158 -1.5872443 0 12
-6.7877212 5.585856 -1.5948337 0 12
-6.8108311 5.4658151 -1.5843521 0 12
-6.8597131 5.3677239 -1.5802497 0 12
-6.9630046 5.3118191 -1.5888777 0 12
-7.0033898 5.2076602 -1.5833613 0 12
-7.1163535 5.1569996 -1.5944434 0 12
-7.155654 5.0524683 -1.5892087 0 12
-7.1810169 4.9391913 -1.5812334 0 12
-6.5706038 4.4013219 -1.4347972 0 12
-6.5827456 4.2931485 -1.425813 0 12
-6.5874681 4.1816907 -1.4155914 0 12
-6.611659 4.0838695 -1.4098918 0 12
-6.6127863 3.9730752 -1.3996085 0 12
-6.6275644 3.8718536 -1.3925544 0 12
-6.6237721 3.7611701 -1.3819354 0 12
-6.645896 3.6664116 -1.377041 0 12
-6.6513119 3.5634384 -1.3689805 0 12
-6.6639342 3.4654284 -1.362705 0 12
-6.6649852 3.3625174 -1.3543625 0 12
-6.688674 3.2719235 -1.3508984 0 12
-6.7019496 3.176898 -1.3455881 0 12
-6.7010708 3.0761516 -1.3377161 0 12
-6.7026248 2.9776382 -1.3306165 0 12
-6.7418194 2.896328 -1.3312265 0 12
-6.7434449 2.7993181 -1.3246505 0 12
-6.7471991 2.7041066 -1.3187566 0 12
-6.7611303 2.6136715 -1.3150984 0 12
-6.764864 2.5199523 -1.3096985 0 12
-6.7669926 2.4264209 -1.3042356 0 12
-6.7911139 2.3412404 -1.3032374 0 12
-6.7922873 2.2485914 -1.2980584 0 12
-6.8094902 2.1617539 -1.2961681 0 12
-6.8065481 2.0690465 -1.2906677 0 12
-6.9891076 2.0310078 -1.3204494 0 12
-7.5040746 2.0809457 -1.4128007 0 12
-8.1435242 2.1508 -1.5280958 0 12
-8.5025158 2.1341321 -1.5904145 0 12
-8.5258293 2.0288842 -1.5899886 0 12
-8.5441446 1.922554 -1.5888753 0 12
-8.5705795 1.818084 -1.5895137 0 12
-8.5925989 1.712629 -1.5895715 0 12
-8.6390018 1.6116985 -1.5943691 0 12
-8.6629257 1.5061831 -1.5952456 0 12
-8.6305904 1.3914604 -1.5860205 0 12
-8.6900749 1.2916329 -1.5939127 0 12
-8.6914949 1.1828074 -1.591385 0 12
-8.6962948 1.0747285 -1.5897241 0 12
-8.7381659 0.97097892 -1.595075 0 12
-8.7347946 0.8620193 -1.5924044 0 12
-8.7599411 0.75586736 -1.5951737 0 12
-8.728879 0.64516819 -1.5879526 0 12
-8.762866 0.53943759 -1.5928084 0 12
-8.7862034 0.43250757 -1.5959631 0 12
-8.762948 0.32341367 -1.5908961 0 12
-8.759203 0.2154704 -1.5896151 0 12
-8.7712374 0.10787854 -1.5914381 0 12
-8.7755642 2.3286748e-05 -1.5921028 0 12
-9.2950706 -2.4665305e-05 -1.5981338 0 13
-9.2846527 -0.1141931 -1.5964633 0 13
-9.2963467 -0.22868377 -1.5988365 0 13
-9.2620583 -0.34183434 -1.593542 0 13
-9.2951097 -0.45755887 -1.6000756 0 13
-9.2616415 -0.57014197 -1.5954005 0 13
-9.2645559 -0.68476105 -1.5972322 0 13
-9.2370272 -0.79703355 -1.5940553 0 13
-9.2383928 -0.91171843 -1.5961051 0 13
-9.2197037 -1.024487 -1.5949321 0 13
-9.2392263 -1.1418265 -1.6006173 0 13
-2.078171 -0.28281397 -0.36060062 0 13
-2.1196547 -0.31505087 -0.36844316 0 13
-2.0515909 -0.33076617 -0.35729212 0 13
-1.9840932 -0.34496516 -0.3462497 0 13
-1.969273 -0.36738899 -0.34442571 0 13
-1.9684489 -0.39234027 -0.3450993 0 13
-1.9641323 -0.41665298 -0.34521464 0 13
-1.9562844 -0.44019181 -0.34476057 0 13
-1.9484959 -0.46368185 -0.34436676 0 13
-1.9468218 -0.48865241 -0.34510678 0 13
-1.9477425 -0.51442158 -0.34636509 0 13
-1.9299877 -0.5352025 -0.34435207 0 13
-1.943608 -0.56480503 -0.34799507 0 13
-1.9362897 -0.5885911 -0.3479543 0 13
-1.9180858 -0.6089192 -0.34600243 0 13
-1.9095843 -0.63216925 -0.34584495 0 13
-1.9043041 -0.65650994 -0.34632453 0 13
-1.8956628 -0.67972231 -0.34624684 0 13
-1.8781255 -0.69961303 -0.34458891 0 13
-1.8487562 -0.71467954 -0.34078699 0 13
-1.7780786 -0.71260887 -0.32934907 0 13
-1.7688712 -0.73428833 -0.32929119 0 13
-1.7703949 -0.76057285 -0.33129081 0 13
-1.7663541 -0.78470206 -0.33231515 0 13
-1.7807987 -0.81748229 -0.33689842 0 13
-1.7520454 -0.83051497 -0.33336556 0 13
-1.7287239 -0.84564632 -0.33088166 0 13
-1.7030816 -0.85921293 -0.3279711 0 13
-1.7118343 -0.89020073 -0.33173954 0 13
-1.753832 -0.93961501 -0.34209156 0 13
-1.742512 -0.96130997 -0.34216335 0 13
-1.7172412 -0.97509938 -0.3395299 0 13
-1.7138389 -1.0012326 -0.34126565 0 13
-1.706031 -1.0250126 -0.3421948 0 13
-1.6985677 -1.0491661 -0.34325954 0 13
-1.7027079 -1.0808702 -0.34675592 0 13
-1.6952991 -1.1056437 -0.34798956 0 13
-1.6978046 -1.1372751 -0.35134783 0 13
-1.703846 -1.1719261 -0.35555336 0 13
-2.4894207 -1.7577314 -0.52395535 0 13
-2.4273083 -1.7589946 -0.51539582 0 13
-1.3899213 -1.0335335 -0.29780111 0 13
-1.3893005 -1.059846 -0.30043766 0 13
-1.3875506 -1.085758 -0.3029235 0 13
-1.3673406 -1.0973155 -0.30143431 0 13
-1.3411601 -1.1036881 -0.29863206 0 13
-1.3449837 -1.1348572 -0.30256784 0 13
-1.3335322 -1.153561 -0.30315977 0 13
-1.3159736 -1.1669669 -0.30240738 0 13
-1.314155 -1.1945392 -0.30534181 0 13
-1.308935 -1.2195206 -0.30758995 0 13
-1.3048339 -1.2460194 -0.31020322 0 13
-1.2777363 -1.2505388 -0.30739364 0 13
-1.2701163 -1.2740318 -0.309306 0 13
-1.2511516 -1.2862585 -0.30851597 0 13
-1.2542142 -1.3215356 -0.31325454 0 13
-1.233604 -1.3322493 -0.31217489 0 13
-1.2227144 -1.3534982 -0.31360722 0 13
-1.2071595 -1.3697683 -0.31391394 0 13
-1.1955714 -1.3907251 -0.31532371 0 13
-1.1924077 -1.4220479 -0.31907704 0 13
-1.1705817 -1.4314034 -0.31792247 0 13
-1.1589388 -1.4532689 -0.31958956 0 13
-1.1387463 -1.4645329 -0.3189632 0 13
-1.1331944 -1.4949691 -0.3225328 0 13
-1.1158292 -1.5102807 -0.32285163 0 13
-1.1123687 -1.5449889 -0.32732242 0 13
-1.096476 -1.5630937 -0.32827684 0 13
-1.0750551 -1.5733563 -0.32763112 0 13
-1.048946 -1.5764129 -0.32555708 0 13
-1.0478722 -1.6175767 -0.33137208 0 13
-1.0205078 -1.6186075 -0.32898769 0 13
-1.0080447 -1.6432847 -0.33145896 0 13
-0.99016196 -1.6595751 -0.33226383 0 13
-0.98081052 -1.690809 -0.33607712 0 13
-1.1460996 -2.0329356 -0.40124911 0 13
-1.116119 -2.037931 -0.39949602 0 13
-1.0903345 -2.0502918 -0.39926067 0 13
-1.0664756 -2.0663195 -0.39979786 0 13
-1.0407172 -2.0787344 -0.39969367 0 13
-1.0188569 -2.0991561 -0.40118107 0 13
-0.99411237 -2.1139548 -0.40164277 0 13
-0.97307277 -2.1370602 -0.40372881 0 13
-0.93619406 -2.1249647 -0.3992388 0 13
-0.90773672 -2.131012 -0.39824772 0 13
-0.88475305 -2.1499994 -0.39973274 0 13
-0.85953617 -2.1639514 -0.40033144 0 13
-0.83465046 -2.1790197 -0.40119001 0 13
-0.80521643 -2.1821291 -0.39990929 0 13
-0.77803195 -2.1910393 -0.3997587 0 13
-0.74651206 -2.1871936 -0.39735222 0 13
-0.7225008 -2.205174 -0.39897457 0 13
-0.69392061 -2.2093959 -0.39816448 0 13
-0.6691246 -2.2258182 -0.39961106 0 13
-0.64411753 -2.2422709 -0.40111256 0 13
-0.61633188 -2.2494116 -0.4010039 0 13
-0.57848257 -2.2179234 -0.39409259 0 13
-0.5646612 -2.2793345 -0.4037402 0 13
-0.56305116 -2.3988283 -0.42364782 0 13
-1.9901016 -8.9732065 -1.5802821 0 13
-1.8828866 -9.0126305 -1.583028 0 13
-1.7820995 -9.0869589 -1.5921141 0 13
-1.6633699 -9.0707426 -1.5855694 0 13
-1.557393 -9.1237764 -1.5913718 0 13
-1.4366826 -9.0890245 -1.5821095 0 13
-1.3323478 -9.1577463 -1.5910997 0 13
-1.2124009 -9.1189318 -1.5816462 0 13
-1.1056676 -9.1786451 -1.589525 0 13
-0.98836458 -9.1511497 -1.5825391 0 13
-0.87333107 -9.1370783 -1.5781292 0 13
-0.7647776 -9.1935015 -1.5861303 0 13
-0.6480999 -9.1516457 -1.5774149 0 13
-0.5392673 -9.2229004 -1.5884336 0 13
-0.42480731 -9.2067566 -1.5846338 0 13
-0.31060782 -9.1827459 -1.5797243 0 13
-0.19702899 -9.155736 -1.5745418 0 13
-0.08525791 -9.2462358 -1.589805 0 13
0.0282805 -9.1960154 -1.5811102 0 13
0.027471701 -1.7870852 -0.30729604 0 13
0.048948195 -1.7687396 -0.30422196 0 13
0.070637904 -1.7666485 -0.3039887 0 13
0.092627972 -1.7708753 -0.30488896 0 13
0.11442655 -1.7700932 -0.30497348 0 13
0.13638429 -1.7711775 -0.30542618 0 13
0.15809382 -1.7687206 -0.30531466 0 13
0.1801222 -1.769521 -0.30581203 0 13
0.20203072 -1.7686162 -0.30606183 0 13
0.22480047 -1.7741981 -0.3074829 0 13
1.2642692 -9.0811691 -1.5764153 0 13
1.3766056 -9.0700378 -1.5773021 0 13
1.494045 -9.0890636 -1.583686 0 13
0.31409872 -1.774242 -0.30979496 0 13
0.33698425 -1.7760116 -0.31080395 0 13
0.34594226 -1.7082632 -0.29966968 0 13
0.36265087 -1.6840551 -0.2961829 0 13
0.29595909 -1.2966746 -0.22867519 0 13
0.29221153 -1.2113994 -0.21425395 0 13
0.29663152 -1.1666059 -0.20696102 0 13
0.29378152 -1.0986538 -0.19553211 0 13
0.29303721 -1.0442473 -0.18647633 0 13
0.2958453 -1.0065119 -0.18037376 0 13
0.34274855 -1.1152151 -0.2005942 0 13
0.34395194 -1.0720105 -0.19356909 0 13
0.34119242 -1.0201184 -0.18494269 0 13
0.39276963 -1.1280259 -0.2053659 0 13
0.38361314 -1.0595918 -0.19375107 0 13
0.3894158 -1.0356556 -0.19023544 0 13
0.69428629 -1.779723 -0.32845357 0 13
0.71530116 -1.7690356 -0.32807961 0 13
0.74479461 -1.778726 -0.33155018 0 13
0.76561236 -1.7671342 -0.3311193 0 13
0.7972225 -1.779778 -0.33529997 0 13
3.841253 -8.3004026 -1.5725279 0 13
3.9510994 -8.269453 -1.5757498 0 13
4.0464296 -8.2079782 -1.573398 0 13
4.1536026 -8.1705036 -1.5758858 0 13
4.2601075 -8.13095 -1.5782412 0 13
4.3595438 -8.0775547 -1.5781629 0 13
