# .PCD v0.7 - Point Cloud Data file format
VERSION 0.7
FIELDS x y z intensity ring
SIZE 4 4 4 4 2
TYPE F F F F U
COUNT 1 1 1 1 1
WIDTH 1321
HEIGHT 1
VIEWPOINT 0 0 0 1 0 0 0
POINTS 1321
DATA ascii
9.3996639 6.5506568 -2.7393997 0 6
9.2888432 6.6445861 -2.7307079 0 6
9.2318249 6.7769279 -2.7382364 0 6
9.1359529 6.8810024 -2.73469 0 6
9.0827055 7.0175757 -2.7443738 0 6
8.9713459 7.109396 -2.7369337 0 6
8.8650084 7.2043381 -2.731312 0 6
8.814558 7.3451262 -2.7433884 0 6
8.7207336 7.4505191 -2.7424932 0 6
8.6197701 7.5495663 -2.7397294 0 6
8.527997 7.6565104 -2.7402771 0 6
8.4396963 7.7667556 -2.7423842 0 6
8.35182 7.8777285 -2.7450986 0 6
8.2258692 7.9523115 -2.7356343 0 6
8.1240263 8.0494394 -2.7344751 0 6
8.0459204 8.1705341 -2.7417953 0 6
7.934927 8.2585163 -2.7383704 0 6
7.844502 8.3679562 -2.7424669 0 6
7.732358 8.4543047 -2.739398 0 6
7.6212454 8.5413675 -2.7370358 0 6
7.5361609 8.6579943 -2.7445059 0 6
7.4292822 8.7501736 -2.7445598 0 6
7.3285666 8.8498354 -2.7473466 0 6
7.1848507 8.8967428 -2.7342749 0 6
7.09442 9.0091782 -2.7418122 0 6
6.9560905 9.0605326 -2.7312031 0 6
6.8698335 9.1796808 -2.7414479 0 6
6.7599273 9.2682295 -2.7428608 0 6
6.6490836 9.3557482 -2.7443573 0 6
6.5279222 9.4286699 -2.7419946 0 6
6.4258652 9.5295277 -2.7481389 0 6
6.290554 9.5809278 -2.7404478 0 6
6.1666074 9.6486797 -2.737931 0 6
6.0565219 9.7382708 -2.7420132 0 6
5.9405203 9.8189335 -2.7439501 0 6
5.8327432 9.914011 -2.7502689 0 6
5.6968789 9.9613295 -2.7437551 0 6
5.5632706 10.011371 -2.7384892 0 6
5.4549055 10.107089 -2.7461162 0 6
5.3322043 10.177181 -2.747138 0 6
5.2175217 10.263327 -2.7528651 0 6
5.071866 10.288024 -2.7425542 0 6
4.9358873 10.330565 -2.7375081 0 6
4.8268199 10.430073 -2.7479408 0 6
4.7008824 10.494595 -2.7495029 0 6
4.5752358 10.560246 -2.7517557 0 6
4.4268255 10.572189 -2.7404761 0 6
4.3087983 10.656236 -2.7483206 0 6
4.1754546 10.703298 -2.7470086 0 6
4.0348468 10.73072 -2.7411056 0 6
3.9173815 10.820342 -2.7514865 0 6
3.7836282 10.866498 -2.7511847 0 6
3.6344757 10.866582 -2.7396839 0 6
3.5067351 10.9296 -2.7444928 0 6
3.3751104 10.981735 -2.7469552 0 6
3.2516942 11.062771 -2.7570155 0 6
3.1065972 11.070457 -2.749203 0 6
2.9622247 11.077824 -2.7417793 0 6
2.8382487 11.162395 -2.7538648 0 6
0.28534701 1.1829418 -0.29095492 0 6
0.22069773 0.96693486 -0.23714072 0 6
0.20744552 0.9633224 -0.23561135 0 6
0.19911934 0.98325151 -0.23986866 0 6
0.17924015 0.94465125 -0.22989689 0 6
0.17197749 0.9714452 -0.23588517 0 6
0.15819511 0.96238428 -0.23319504 0 6
0.1463021 0.96394026 -0.23311853 0 6
0.30828601 2.2143996 -0.53457141 0 6
0.28442815 2.2447989 -0.5410248 0 6
0.25902542 2.2675591 -0.54570138 0 6
0.096718922 0.95016694 -0.22835977 0 6
0.085298173 0.95429814 -0.22908324 0 6
0.88483375 11.491042 -2.7556524 0 6
0.74252319 11.486279 -2.7521124 0 6
0.5999766 11.470442 -2.7463427 0 6
0.46054903 11.518295 -2.7562358 0 6
0.31882173 11.520601 -2.7556412 0 6
0.17685933 11.505028 -2.7511878 0 6
0.035332575 11.48915 -2.7470796 0 6
-0.10605012 11.501155 -2.7500539 0 6
-0.24692087 11.47416 -2.7441177 0 6
-0.38898441 11.499856 -2.7511988 0 6
-0.11808868 2.5593104 -0.61258459 0 6
-0.13310534 2.2764542 -0.545232 0 6
-0.15910323 2.2466543 -0.53852248 0 6
-0.14580657 1.7527617 -0.42053452 0 6
-0.16662262 1.7432609 -0.41871494 0 6
-0.10328538 0.95630705 -0.22998367 0 6
-0.11574484 0.96085018 -0.23140103 0 6
-0.12701243 0.95530909 -0.23042528 0 6
-0.13827859 0.95044279 -0.22964428 0 6
-0.1527468 0.96633685 -0.23392072 0 6
-0.16633354 0.97444254 -0.2363601 0 6
-0.17702028 0.96533275 -0.23466067 0 6
-0.4282743 2.1837788 -0.53209001 0 6
-0.45942616 2.1990905 -0.5371567 0 6
-0.48549104 2.1890395 -0.53611934 0 6
-0.51360911 2.188185 -0.53741616 0 6
-0.54483593 2.1993072 -0.54175216 0 6
-0.5680787 2.1780345 -0.53819215 0 6
-0.59650034 2.1770327 -0.53971624 0 6
-0.6232444 2.1696084 -0.53973472 0 6
-0.65391022 2.1752081 -0.54308707 0 6
-0.69817066 2.2229278 -0.55710262 0 6
-0.72889483 2.2246895 -0.55974805 0 6
-0.75489092 2.2117429 -0.55878389 0 6
-0.78614414 2.2138841 -0.56172472 0 6
-0.82004195 2.2223063 -0.56637728 0 6
-0.85251027 2.2256463 -0.56985712 0 6
-0.88366824 2.2247059 -0.57235521 0 6
-0.91101879 2.2138267 -0.57239503 0 6
-0.90954667 2.1352611 -0.55493134 0 6
-0.9185046 2.0848136 -0.54471469 0 6
-0.92009306 2.0207062 -0.53088081 0 6
-0.91763914 1.9513365 -0.51558143 0 6
-0.92961282 1.9152861 -0.50903803 0 6
-0.93905556 1.8756747 -0.50154126 0 6
-0.94182855 1.824813 -0.49100086 0 6
-0.94195819 1.7712811 -0.47967738 0 6
-0.94810331 1.7311497 -0.47193095 0 6
-0.95010316 1.68528 -0.46257627 0 6
-0.95972174 1.6544544 -0.45731986 0 6
-0.98233438 1.6464555 -0.45841309 0 6
-1.0105516 1.6473715 -0.46209297 0 6
-1.3116343 2.0803578 -0.58802658 0 6
-1.3083059 2.0196023 -0.57535744 0 6
-1.3164667 1.9784575 -0.56820458 0 6
-1.3087126 1.9153169 -0.55465066 0 6
-1.3108468 1.8686925 -0.54577541 0 6
-1.3155535 1.827196 -0.53833967 0 6
-1.3056322 1.7671801 -0.52534783 0 6
-1.3113296 1.7299742 -0.5190416 0 6
-1.31154 1.6867616 -0.5108766 0 6
-1.321364 1.6569446 -0.50672865 0 6
-1.3515209 1.6526583 -0.51046169 0 6
-1.3382548 1.595983 -0.49800128 0 6
-1.3602028 1.5822294 -0.49889094 0 6
-7.6636028 8.6959181 -2.7714038 0 6
-7.7366872 8.5642176 -2.7595413 0 6
-7.8499756 8.4777002 -2.7625577 0 6
-7.9752207 8.4033003 -2.7700605 0 6
-8.0513945 8.2773132 -2.7609572 0 6
-8.1733837 8.1985798 -2.7680097 0 6
-8.24613 8.0706053 -2.7588284 0 6
-8.3823843 8.0045528 -2.7712741 0 6
-1.0363815 0.96558535 -0.3386839 0 6
-1.0658134 0.96880192 -0.344383 0 6
-1.1006632 0.97603595 -0.35173899 0 6
-1.122648 0.9711374 -0.35492167 0 6
-1.1354214 0.95803469 -0.35520875 0 6
-1.1568805 0.95203793 -0.35823265 0 6
-1.1963905 0.96012497 -0.3667835 0 6
-1.2048701 0.9428106 -0.3658013 0 6
-1.2218426 0.93209863 -0.36744666 0 6
-1.2715813 0.94553679 -0.37887946 0 6
-1.30109 0.94285935 -0.38418835 0 6
-1.342188 0.94769281 -0.39285311 0 6
-9.5428638 6.5636992 -2.7693257 0 6
-9.6216078 6.4450383 -2.7689693 0 6
-9.6821947 6.3145542 -2.7638507 0 6
-9.7603722 6.1958337 -2.7642097 0 6
-9.8560543 6.0878577 -2.7698977 0 6
-9.9198656 5.9600248 -2.7670252 0 6
-9.9997883 5.8419223 -2.7690721 0 6
-10.085547 5.7268667 -2.7731099 0 6
-1.3241109 0.73048621 -0.36157879 0 6
-1.321496 0.70799112 -0.35846034 0 6
-10.237385 5.3237205 -2.75896 0 6
-10.337228 5.2151814 -2.7683759 0 6
-1.4620476 0.71519524 -0.38916111 0 6
-10.457013 4.9568958 -2.7669666 0 6
-10.525201 4.8316326 -2.7690792 0 6
-10.563934 4.6930232 -2.7638783 0 6
-10.650365 4.5754638 -2.7715621 0 6
-10.674132 4.4310126 -2.7633591 0 6
-10.765984 4.314734 -2.7731931 0 6
-10.80542 4.1770854 -2.7699113 0 6
-10.836487 4.0366559 -2.7649419 0 6
-10.867869 3.8968601 -2.7605143 0 6
-10.915278 3.7630484 -2.7605944 0 6
-11.023501 3.649338 -2.7764063 0 6
-11.061193 3.511508 -2.7748146 0 6
-11.06457 3.363395 -2.7650774 0 6
-11.109529 3.2283864 -2.7661831 0 6
-11.166203 3.0964859 -2.7706044 0 6
-11.207579 2.9600527 -2.77163 0 6
-11.225671 2.8176441 -2.7673268 0 6
-11.280822 2.6844873 -2.7725754 0 6
-11.277486 2.5375948 -2.7638774 0 6
-11.317687 2.40083 -2.7662857 0 6
-11.375222 2.2672458 -2.7733243 0 6
-11.39926 2.1266541 -2.7725997 0 6
-11.431525 1.9875467 -2.7742934 0 6
-11.413738 1.8401713 -2.7642763 0 6
-11.455323 1.7026404 -2.7690678 0 6
-11.493204 1.5640863 -2.773366 0 6
-11.493924 1.4204724 -2.7691154 0 6
-11.492402 1.2770277 -2.7647567 0 6
-11.510548 1.1359528 -2.7655525 0 6
-11.527778 0.99469513 -2.7665443 0 6
-11.5543 0.85400045 -2.77018 0 6
-11.582661 0.71302277 -2.7746677 0 6
-11.554643 0.56878608 -2.7660713 0 6
-11.572227 0.42709559 -2.7688141 0 6
-11.578573 0.28482497 -2.7692852 0 6
-11.597213 0.14263557 -2.7731142 0 6
-11.600593 3.0783216e-05 -2.7737126 0 6
-12.077104 -3.2047679e-05 -2.7703929 0 7
-12.107392 -0.14891033 -2.7775507 0 7
-12.111691 -0.29793933 -2.7791674 0 7
-12.102539 -0.44666782 -2.7781177 0 7
-12.05506 -0.59341955 -2.7686846 0 7
-12.079415 -0.74360269 -2.7761683 0 7
-12.054047 -0.89093769 -2.7726462 0 7
-12.026243 -1.0377061 -2.7689767 0 7
-12.03137 -1.1873517 -2.773309 0 7
-12.020717 -1.3357337 -2.7744296 0 7
-12.037063 -1.487596 -2.7822139 0 7
-11.985193 -1.63104 -2.7746508 0 7
-11.959509 -1.7775791 -2.7735555 0 7
-11.913074 -1.9206764 -2.7680545 0 7
-11.887633 -2.0668483 -2.7678394 0 7
-11.884561 -2.2171922 -2.773262 0 7
-11.852715 -2.3624172 -2.7723999 0 7
-11.855306 -2.5148757 -2.7800291 0 7
-11.818581 -2.6593487 -2.7788754 0 7
-11.748298 -2.795732 -2.7702236 0 7
-11.710757 -2.9394009 -2.769685 0 7
-11.704133 -3.0911984 -2.7768981 0 7
-11.65018 -3.2306972 -2.773313 0 7
-11.5967 -3.3699563 -2.7702372 0 7
-11.564441 -3.5153451 -2.7726476 0 7
-11.504281 -3.6521714 -2.7687817 0 7
-11.448237 -3.7899473 -2.7663004 0 7
-11.430134 -3.9405451 -2.7734246 0 7
-11.377312 -4.0795298 -2.7725701 0 7
-11.3654 -4.2336798 -2.7821436 0 7
-11.258544 -4.3522506 -2.7688773 0 7
-11.226067 -4.4991236 -2.774286 0 7
-11.139553 -4.624217 -2.7667491 0 7
-11.110615 -4.77319 -2.7739296 0 7
-11.019117 -4.8952384 -2.7659054 0 7
-10.997096 -5.0482578 -2.7757497 0 7
-10.916389 -5.1746516 -2.7712297 0 7
-10.889705 -5.3269577 -2.780874 0 7
-10.808759 -5.4530711 -2.7771163 0 7
-10.708437 -5.5686803 -2.7687244 0 7
-10.646634 -5.7039313 -2.7706702 0 7
-10.552785 -5.8217664 -2.7646677 0 7
-10.488875 -5.9558878 -2.7669022 0 7
-10.475386 -6.1197686 -2.7829843 0 7
-10.389755 -6.2423429 -2.780417 0 7
-10.308223 -6.3671517 -2.7793403 0 7
-10.227121 -6.4921236 -2.7787871 0 7
-10.097068 -6.5851269 -2.7652431 0 7
-10.015344 -6.7087822 -2.7652447 0 7
-9.9430695 -6.8389654 -2.7682993 0 7
-9.872014 -6.970437 -2.7721703 0 7
-9.8038244 -7.1045256 -2.7773438 0 7
-9.7198162 -7.2275715 -2.778512 0 7
-9.5712624 -7.3015623 -2.761503 0 7
-9.5066347 -7.4389396 -2.7690392 0 7
-9.4414339 -7.5769215 -2.7769756 0 7
-9.3056288 -7.6579318 -2.7645195 0 7
-9.2308674 -7.7887306 -2.7705524 0 7
-9.1500158 -7.9151459 -2.7752879 0 7
-9.0226574 -8.001029 -2.7662907 0 7
-8.9640923 -8.1481705 -2.7788434 0 7
-8.8134327 -8.2113791 -2.7632315 0 7
-8.7486238 -8.3542852 -2.7749102 0 7
-8.6103678 -8.4270906 -2.7637165 0 7
-8.5556889 -8.5820637 -2.7798281 0 7
-8.4064846 -8.6423674 -2.7656693 0 7
-8.2801828 -8.7246313 -2.7592037 0 7
-8.2115936 -8.8682346 -2.7724757 0 7
-8.0804558 -8.9447565 -2.7651265 0 7
-8.0121603 -9.0914278 -2.7798009 0 7
-7.8672605 -9.1514368 -2.7683611 0 7
-7.7468333 -9.238759 -2.7657511 0 7
-7.6157794 -9.3126802 -2.7596371 0 7
-7.5393157 -9.4540396 -2.7738447 0 7
-7.4026299 -9.5204659 -2.766418 0 7
-7.2768559 -9.6000071 -2.7633212 0 7
-7.1462584 -9.6724977 -2.7586849 0 7
-7.0672994 -9.8158989 -2.7745888 0 7
-6.9435654 -9.8984776 -2.773587 0 7
-6.816659 -9.976264 -2.7716863 0 7
-6.6824536 -10.042753 -2.7671204 0 7
-6.5571384 -10.122107 -2.7665598 0 7
-6.4293346 -10.197442 -2.7653332 0 7
-6.3021631 -10.273601 -2.7647619 0 7
-6.1804972 -10.358912 -2.7670588 0 7
-6.039475 -10.411388 -2.7610302 0 7
-5.909409 -10.482029 -2.7602849 0 7
-5.7876158 -10.567656 -2.7638836 0 7
-5.6600814 -10.643355 -2.7652702 0 7
-5.5268593 -10.708408 -2.7643056 0 7
-5.3978229 -10.781641 -2.765867 0 7
-5.2683449 -10.854398 -2.7677035 0 7
-5.1382203 -10.926296 -2.7697167 0 7
-5.0095921 -11.002054 -2.7730958 0 7
-4.8393087 -10.98422 -2.7533939 0 7
-4.7134867 -11.06543 -2.7590134 0 7
-4.583385 -11.137882 -2.7628171 0 7
-4.4467072 -11.194943 -2.7631993 0 7
-4.3210268 -11.280893 -2.7710898 0 7
-4.1573482 -11.266376 -2.7547576 0 7
-4.0319872 -11.3546 -2.763998 0 7
-3.9034188 -11.436563 -2.7720563 0 7
-3.7393405 -11.412993 -2.7549899 0 7
-3.6083062 -11.488601 -2.7623217 0 7
-3.4776878 -11.5684 -2.7710173 0 7
-3.3177998 -11.549765 -2.7565727 0 7
-3.1817675 -11.612419 -2.7619798 0 7
-3.0319061 -11.624438 -2.7557631 0 7
-2.8982129 -11.699045 -2.7647922 0 7
-2.7419033 -11.681629 -2.7525003 0 7
-2.6068656 -11.754146 -2.7618251 0 7
-2.454263 -11.747581 -2.7529836 0 7
-2.3195126 -11.827238 -2.7647576 0 7
-2.1666172 -11.815067 -2.7554767 0 7
-2.0299261 -11.892046 -2.7673991 0 7
-1.880778 -11.898548 -2.7633212 0 7
-1.7297361 -11.889153 -2.7559912 0 7
-1.5899862 -11.958896 -2.7674167 0 7
-1.4393109 -11.94837 -2.7606766 0 7
-1.2898126 -11.942222 -2.7553833 0 7
-1.1407403 -11.934801 -2.750227 0 7
-0.99333113 -11.940976 -2.7486274 0 7
-0.85124135 -12.020152 -2.7642341 0 7
-0.70303673 -12.023792 -2.7628744 0 7
-0.55424517 -12.012036 -2.7583983 0 7
-0.40691155 -12.02985 -2.7611313 0 7
-0.25853041 -12.013643 -2.7564735 0 7
-0.11091932 -12.029222 -2.7595263 0 7
0.036961988 -12.018989 -2.7570746 0 7
0.18507528 -12.039491 -2.7620909 0 7
0.33327183 -12.042755 -2.763571 0 7
0.47880575 -11.974895 -2.7491417 0 7
0.62638313 -11.975286 -2.7507918 0 7
0.77523828 -11.992355 -2.7566941 0 7
0.92390889 -11.998497 -2.7605088 0 7
1.066095 -11.927248 -2.7469249 0 7
1.2179528 -11.965172 -2.7588995 0 7
1.3596036 -11.902234 -2.7480347 0 7
1.5114299 -11.928694 -2.7582262 0 7
1.6508427 -11.857903 -2.7463436 0 7
1.8046681 -11.890411 -2.7588038 0 7
1.945949 -11.838234 -2.7520413 0 7
2.0859146 -11.782656 -2.7448764 0 7
2.244128 -11.82725 -2.7614849 0 7
2.3858035 -11.7811 -2.7573507 0 7
2.5281384 -11.740009 -2.754801 0 7
2.6702902 -11.699244 -2.7527323 0 7
2.816153 -11.674715 -2.7549002 0 7
2.9611328 -11.645679 -2.7564323 0 7
3.1085176 -11.624914 -2.7603559 0 7
3.2358446 -11.531034 -2.7473042 0 7
3.3825936 -11.508112 -2.7515452 0 7
3.5147345 -11.436036 -2.7444379 0 7
3.6690879 -11.435612 -2.7549551 0 7
3.8065028 -11.380919 -2.7528472 0 7
3.9377725 -11.309196 -2.7470031 0 7
4.0736909 -11.25209 -2.7450914 0 7
4.207756 -11.190573 -2.7424991 0 7
4.3528304 -11.15798 -2.7474215 0 7
4.4932184 -11.11233 -2.7495775 0 7
4.6379294 -11.076349 -2.7545776 0 7
4.7580152 -10.982125 -2.7454877 0 7
4.8861675 -10.908239 -2.7418294 0 7
5.0472064 -10.906296 -2.7567325 0 7
5.172997 -10.826824 -2.7525146 0 7
5.2986245 -10.747993 -2.7488298 0 7
5.4283476 -10.67804 -2.7478027 0 7
5.5520926 -10.596867 -2.7442751 0 7
5.7036924 -10.568052 -2.7547681 0 7
5.8344774 -10.49942 -2.7553706 0 7
5.9434385 -10.392453 -2.7462709 0 7
6.0737486 -10.323652 -2.7476182 0 7
6.1937199 -10.23744 -2.7447357 0 7
6.3161201 -10.155678 -2.7434301 0 7
6.4568095 -10.10275 -2.7503722 0 7
6.5643067 -9.9978714 -2.743587 0 7
6.6983767 -9.9336615 -2.7483618 0 7
6.8145328 -9.842639 -2.7461545 0 7
6.9352798 -9.7584467 -2.7462504 0 7
7.0594487 -9.6788902 -2.7480829 0 7
7.1500087 -9.55406 -2.737396 0 7
7.2987666 -9.5068789 -2.7493846 0 7
7.4013329 -9.3989267 -2.7442775 0 7
7.5081334 -9.2970524 -2.7412817 0 7
7.6128516 -9.1931334 -2.7380352 0 7
7.7357736 -9.1111574 -2.7417436 0 7
7.8463798 -9.0143929 -2.7414515 0 7
7.9622426 -8.9235334 -2.7433877 0 7
8.0905457 -8.8459358 -2.7499087 0 7
8.1707878 -8.7160149 -2.7405467 0 7
8.3123865 -8.6513691 -2.7521508 0 7
8.394866 -8.5248842 -2.7445447 0 7
8.4861622 -8.4082518 -2.7403831 0 7
8.5778627 -8.2925987 -2.7368603 0 7
8.724577 -8.2293262 -2.7511766 0 7
8.8262348 -8.1224737 -2.7515297 0 7
8.9126291 -8.0018368 -2.7475812 0 7
8.9770107 -7.862453 -2.7374172 0 7
9.087204 -7.7636123 -2.7417014 0 7
9.1818991 -7.6512299 -2.7416785 0 7
9.2989893 -7.5570221 -2.7486863 0 7
9.3416061 -7.4028106 -2.7341697 0 7
9.4698629 -7.3167057 -2.7451684 0 7
9.5237112 -7.1730537 -2.7350025 0 7
9.6371288 -7.0744553 -2.7423847 0 7
9.6953764 -6.9353914 -2.7344851 0 7
9.8190632 -6.8429379 -2.7454302 0 7
9.8913231 -6.7141314 -2.7423429 0 7
9.9469786 -6.5747194 -2.735152 0 7
10.068073 -6.4783049 -2.7463379 0 7
10.138599 -6.348783 -2.7440732 0 7
10.206654 -6.2180138 -2.741591 0 7
10.277306 -6.0890675 -2.7402499 0 7
10.344736 -5.9584055 -2.7384865 0 7
10.406991 -5.825038 -2.7357986 0 7
10.47881 -5.6971726 -2.7360554 0 7
10.555929 -5.5720487 -2.7380946 0 7
10.635319 -5.4478178 -2.7411039 0 7
10.699332 -5.3155632 -2.7405491 0 7
10.772932 -5.1879659 -2.7428534 0 7
10.842412 -5.0581493 -2.7445002 0 7
10.912817 -4.9285326 -2.7467735 0 7
10.928044 -4.7745185 -2.7356222 0 7
10.992593 -4.6426082 -2.7372828 0 7
11.093762 -4.5254202 -2.7484109 0 7
11.070774 -4.3580508 -2.729233 0 7
11.159447 -4.2352347 -2.7380476 0 7
11.256222 -4.1143503 -2.749171 0 7
11.242169 -3.9532065 -2.7336597 0 7
11.306106 -3.8201461 -2.7375772 0 7
11.40304 -3.6973197 -2.7498322 0 7
11.415708 -3.5469127 -2.742162 0 7
11.479676 -3.4125905 -2.7472403 0 7
11.483865 -3.2607057 -2.7384405 0 7
11.563392 -3.1301684 -2.748018 0 7
11.556399 -2.9762659 -2.737452 0 7
11.57164 -2.8289421 -2.7326159 0 7
11.652965 -2.6974242 -2.7437801 0 7
11.646711 -2.5455177 -2.734731 0 7
11.65747 -2.3980784 -2.7301269 0 7
11.741495 -2.2652545 -2.7430744 0 7
11.751662 -2.1176882 -2.7391591 0 7
11.735491 -1.9661124 -2.7295482 0 7
11.818265 -1.8308852 -2.7433567 0 7
11.830973 -1.6841664 -2.7412922 0 7
11.844236 -1.5377206 -2.7397771 0 7
11.840382 -1.389407 -2.7347267 0 7
11.834933 -1.2414485 -2.7297361 0 7
11.923831 -1.1027302 -2.7469053 0 7
11.926659 -0.95524955 -2.7446432 0 7
11.939092 -0.8086403 -2.7450087 0 7
11.932318 -0.6609056 -2.7413752 0 7
11.916946 -0.51316833 -2.7361872 0 7
11.91809 -0.36647308 -2.7352085 0 7
11.92301 -0.21993028 -2.7355101 0 7
11.918366 -0.07327415 -2.7340314 0 7
11.925508 0.073318057 -2.7356694 0 7
11.934555 0.22014323 -2.7381589 0 7
11.920913 0.36655989 -2.7358563 0 7
11.921142 0.513349 -2.7371504 0 7
11.92483 0.66049093 -2.7396553 0 7
11.937113 0.80850619 -2.7445536 0 7
11.925914 0.95518994 -2.7444718 0 7
11.915076 1.1019205 -2.7448883 0 7
11.831713 1.2411106 -2.7289932 0 7
11.844957 1.389944 -2.7357836 0 7
11.837789 1.5368835 -2.7382858 0 7
11.834558 1.6846769 -2.7421231 0 7
11.830284 1.8327472 -2.7461469 0 7
11.758891 1.9700328 -2.7349908 0 7
11.745744 2.1166217 -2.7377796 0 7
11.746935 2.266304 -2.7443452 0 7
11.673186 2.4013116 -2.7338076 0 7
11.662107 2.5488827 -2.7383461 0 7
11.647786 2.6962254 -2.7425609 0 7
11.559916 2.8260758 -2.7298472 0 7
11.561732 2.9776394 -2.7387154 0 7
11.573933 3.1330218 -2.7505231 0 7
11.494038 3.2635939 -2.7408662 0 7
11.485623 3.4143584 -2.7486634 0 7
11.407294 3.5442986 -2.7401409 0 7
11.41397 3.7008638 -2.7524679 0 7
11.320007 3.8248432 -2.7409432 0 7
11.240816 3.9527309 -2.7333307 0 7
11.248998 4.1117096 -2.7474065 0 7
11.168813 4.2387891 -2.7403455 0 7
11.08455 4.3634739 -2.7326293 0 7
11.077474 4.5187755 -2.7443755 0 7
10.991851 4.6422949 -2.7370982 0 7
10.924127 4.7728066 -2.7346413 0 7
10.921995 4.9326777 -2.7490835 0 7
10.83337 5.0539312 -2.7422113 0 7
10.755889 5.1797581 -2.7385142 0 7
10.690067 5.3109598 -2.7381759 0 7
10.621801 5.4408937 -2.7376201 0 7
10.563074 5.5758204 -2.7399478 0 7
10.488315 5.7023401 -2.7385371 0 7
10.409813 5.8266168 -2.7365403 0 7
10.344185 5.9580879 -2.7383406 0 7
10.285686 6.0940318 -2.7424841 0 7
10.209936 6.2200141 -2.7424729 0 7
10.139415 6.3492937 -2.7442939 0 7
10.08213 6.48735 -2.7501721 0 7
9.9472055 6.5748696 -2.7352145 0 7
9.8810234 6.70714 -2.7394874 0 7
9.8288984 6.849792 -2.7481802 0 7
9.6905985 6.9319735 -2.7331374 0 7
9.6326094 7.0711374 -2.7410984 0 7
9.5309181 7.1784821 -2.7370722 0 7
9.4600306 7.3091087 -2.7423182 0 7
9.3398762 7.4014392 -2.7336633 0 7
9.2893019 7.549149 -2.7458229 0 7
9.1774158 7.6474934 -2.7403398 0 7
9.0852852 7.7619724 -2.7411222 0 7
8.9690151 7.8554497 -2.7349789 0 7
8.9308453 8.0181913 -2.753197 0 7
8.8218374 8.1184273 -2.750159 0 7
8.7212934 8.2262297 -2.7501414 0 7
8.5839825 8.2985153 -2.7388124 0 7
8.492094 8.4141283 -2.7422986 0 7
8.4012499 8.5313673 -2.7466319 0 7
8.3099499 8.6488333 -2.7513442 0 7
8.1807508 8.7266426 -2.7438884 0 7
8.0877428 8.8428707 -2.748956 0 7
7.9702811 8.9325428 -2.7461574 0 7
7.8549342 9.0242205 -2.7444406 0 7
7.7353177 9.1106205 -2.7415822 0 7
7.6213269 9.2033682 -2.7410836 0 7
7.5103979 9.2998571 -2.7421086 0 7
7.3944449 9.3901796 -2.7417235 0 7
7.2990818 9.5072899 -2.7495034 0 7
7.1580963 9.564867 -2.7404926 0 7
7.0675526 9.6900015 -2.7512376 0 7
6.9397297 9.7647076 -2.7480123 0 7
6.8237357 9.8559313 -2.7498631 0 7
6.699296 9.9350252 -2.7487392 0 7
6.5584674 9.9889784 -2.7411468 0 7
6.4507403 10.093253 -2.7477868 0 7
6.322916 10.166605 -2.7463818 0 7
6.1975708 10.243806 -2.7464423 0 7
6.0717955 10.320332 -2.7467346 0 7
5.9374223 10.381933 -2.7434909 0 7
5.8250589 10.482471 -2.7509229 0 7
5.6970377 10.555723 -2.751554 0 7
5.5511804 10.595125 -2.7438245 0 7
5.427938 10.677234 -2.7475955 0 7
5.2938175 10.738241 -2.746336 0 7
5.1818752 10.845406 -2.7572389 0 7
5.0420265 10.895103 -2.7539034 0 7
4.8908987 10.918801 -2.7444842 0 7
4.7610459 10.98912 -2.7472363 0 7
4.6394067 11.079878 -2.755455 0 7
4.4971123 11.121961 -2.7519605 0 7
4.3512301 11.153878 -2.7464113 0 7
4.2099786 11.196484 -2.7439477 0 7
4.0755405 11.257198 -2.7463379 0 7
3.9372447 11.30768 -2.746635 0 7
3.8060651 11.379611 -2.7525306 0 7
3.665556 11.424603 -2.7523031 0 7
3.5165682 11.442002 -2.7458696 0 7
3.3872576 11.523979 -2.7553389 0 7
3.2370701 11.5354 -2.7483447 0 7
3.1071615 11.619843 -2.7591517 0 7
2.9619503 11.648893 -2.7571933 0 7
2.8158591 11.673495 -2.7546124 0 7
0.22113578 0.96885407 -0.22796309 0 7
0.21158107 0.98252678 -0.23055057 0 7
0.19612636 0.96847212 -0.22666959 0 7
0.18711662 0.98616272 -0.23025414 0 7
0.16920313 0.95577371 -0.22265615 0 7
0.15719707 0.95631272 -0.2223146 0 7
0.14264342 0.93983436 -0.21805963 0 7
0.30675 2.2033665 -0.51030964 0 7
0.28479874 2.2477238 -0.51973259 0 7
0.25907794 2.2680187 -0.5236491 0 7
0.097356461 0.9564302 -0.22053128 0 7
0.085529655 0.95688784 -0.22037765 0 7
0.92322689 11.989641 -2.7584713 0 7
0.77578372 12.000793 -2.7586339 0 7
0.62589294 11.965915 -2.7486391 0 7
0.47868988 11.971996 -2.7484763 0 7
0.33325496 12.042145 -2.7634311 0 7
0.18496177 12.032105 -2.7603967 0 7
0.037005439 12.033118 -2.7603159 0 7
-0.11094196 12.031676 -2.7600894 0 7
-0.25895819 12.033522 -2.7610345 0 7
-0.40664864 12.022078 -2.7593472 0 7
-0.11799976 2.5573833 -0.58726782 0 7
-0.13323738 2.2787125 -0.52361155 0 7
-0.12633458 1.7839369 -0.41024598 0 7
-0.14741135 1.772053 -0.40789908 0 7
-0.1690549 1.7687082 -0.40757686 0 7
-0.10318116 0.95534211 -0.22042245 0 7
-0.11511581 0.95562828 -0.22079839 0 7
-0.12624903 0.94956726 -0.21974006 0 7
-0.13842653 0.95145959 -0.22055519 0 7
-0.15345348 0.97080767 -0.22546057 0 7
-0.16610868 0.97312522 -0.22645605 0 7
-0.17835419 0.9726069 -0.22682863 0 7
-0.43052518 2.195256 -0.51316726 0 7
-0.45721462 2.1885047 -0.51286453 0 7
-0.48282695 2.1770275 -0.51152754 0 7
-0.51286727 2.1850245 -0.51484942 0 7
-0.54253912 2.1900358 -0.51756305 0 7
-0.57149017 2.1911144 -0.5194394 0 7
-0.60101765 2.1935196 -0.5217222 0 7
-0.63280112 2.2028766 -0.52575874 0 7
-0.65816945 2.1893764 -0.52442861 0 7
-0.68748903 2.1889181 -0.52630401 0 7
-0.71233696 2.1741526 -0.52482015 0 7
-0.74880064 2.1938989 -0.53176916 0 7
-0.77924299 2.1944497 -0.53418475 0 7
-0.80911702 2.1926997 -0.53614014 0 7
-0.83942872 2.1914942 -0.53832859 0 7
-0.86863196 2.1868508 -0.5397709 0 7
-0.90035719 2.1879184 -0.54272598 0 7
-0.90996325 2.1362391 -0.53264195 0 7
-0.92052692 2.0894036 -0.52374691 0 7
-0.92747986 2.0369291 -0.51341319 0 7
-0.93764853 1.9938859 -0.50543195 0 7
-0.9417485 1.9402893 -0.49474376 0 7
-0.95277029 1.9030685 -0.48820347 0 7
-0.95016563 1.8409662 -0.47523341 0 7
-0.9515087 1.7892402 -0.46486586 0 7
-0.95535737 1.7443949 -0.45623216 0 7
-0.95666683 1.6969227 -0.44685906 0 7
-0.95502603 1.6463594 -0.43660349 0 7
-0.98646784 1.6533835 -0.44164965 0 7
-1.0086859 1.6443301 -0.44251102 0 7
-1.0398122 1.649226 -0.44723561 0 7
-1.3110697 2.0238688 -0.55316091 0 7
-1.307254 1.964612 -0.54131752 0 7
-1.31194 1.9200401 -0.53344107 0 7
-1.3079262 1.864529 -0.52244729 0 7
-1.3048626 1.8123472 -0.51228297 0 7
-1.317217 1.7828602 -0.508488 0 7
-1.3122944 1.7312471 -0.49833208 0 7
-1.300786 1.6729311 -0.48611343 0 7
-1.3217596 1.6574405 -0.48629823 0 7
-1.3431764 1.6424545 -0.48671043 0 7
-1.3495559 1.6094604 -0.48181435 0 7
-1.3600043 1.5819985 -0.47856343 0 7
-8.0082769 9.0870209 -2.7784536 0 7
-8.0701103 8.9333048 -2.7615862 0 7
-8.213378 8.870162 -2.7730784 0 7
-8.2833319 8.7279501 -2.760253 0 7
-8.4127913 8.6488514 -2.7677443 0 7
-8.5495234 8.5758791 -2.7778246 0 7
-8.613102 8.4297667 -2.7645943 0 7
-8.7503052 8.3558903 -2.7754433 0 7
-1.0477151 0.97614467 -0.32848486 0 7
-1.0757977 0.97787744 -0.33349428 0 7
-1.0977113 0.97341835 -0.33655146 0 7
-1.1250619 0.97322553 -0.3412421 0 7
-1.1463907 0.96729028 -0.34407768 0 7
-1.1528387 0.94871175 -0.3424857 0 7
-1.1786869 0.94591749 -0.346683 0 7
-1.2142178 0.95012522 -0.35367054 0 7
-1.2384651 0.94477928 -0.35732228 0 7
-1.2640333 0.93992424 -0.36133727 0 7
-1.3054289 0.94600362 -0.36981738 0 7
-1.3415726 0.94725835 -0.37672839 0 7
-9.9433136 6.8391333 -2.7683673 0 7
-10.02935 6.7181644 -2.7691119 0 7
-10.083923 6.5765538 -2.7616429 0 7
-10.231733 6.4950519 -2.7800405 0 7
-10.311573 6.3692207 -2.7802434 0 7
-10.387851 6.2411985 -2.7799072 0 7
-10.475975 6.1201129 -2.7831407 0 7
-10.47606 5.9486108 -2.7635214 0 7
-1.323989 0.73041898 -0.34686479 0 7
-1.3150381 0.70453131 -0.3422243 0 7
-10.712495 5.5707908 -2.7697737 0 7
-10.809855 5.4536242 -2.7773979 0 7
-1.466095 0.71717519 -0.37439263 0 7
-10.915705 5.1743274 -2.7710559 0 7
-10.996313 5.0478988 -2.775552 0 7
-11.030349 4.900228 -2.7687244 0 7
-11.115021 4.7750831 -2.7750299 0 7
-11.144615 4.6263185 -2.7680063 0 7
-11.22579 4.4990125 -2.7742178 0 7
-11.249386 4.3487105 -2.7666249 0 7
-11.346336 4.2265782 -2.7774768 0 7
-11.378092 4.0798092 -2.7727602 0 7
-11.43907 3.9436259 -2.775593 0 7
-11.467796 3.7964222 -2.7710266 0 7
-11.515661 3.6557839 -2.7715206 0 7
-11.564794 3.5154524 -2.772732 0 7
-11.601135 3.3712451 -2.7712967 0 7
-11.656018 3.232316 -2.774703 0 7
-11.718252 3.0949275 -2.7802482 0 7
-11.694362 2.9352856 -2.7658072 0 7
-11.762579 2.7991307 -2.773591 0 7
-11.831291 2.6622086 -2.7818639 0 7
-11.848687 2.5134716 -2.7784772 0 7
-11.85524 2.3629205 -2.7729907 0 7
-11.858827 2.2123914 -2.7672572 0 7
-11.899354 2.068886 -2.7705684 0 7
-11.914034 1.9208311 -2.7682776 0 7
-11.943957 1.7752676 -2.769949 0 7
-11.987437 1.6313454 -2.7751706 0 7
-12.031547 1.4869143 -2.7809389 0 7
-12.011003 1.3346545 -2.7721879 0 7
-12.027006 1.186921 -2.7723031 0 7
-12.034571 1.0384246 -2.7708941 0 7
-12.061708 0.89150399 -2.7744086 0 7
-12.089874 0.7442466 -2.7785723 0 7
-12.059868 0.59365618 -2.7697887 0 7
-12.104265 0.44673154 -2.7785139 0 7
-12.104744 0.29776844 -2.7775733 0 7
-12.10463 0.14887635 -2.776917 0 7
-12.105127 3.212204e-05 -2.7768211 0 7
-12.66252 -3.3601136e-05 -2.782263 0 8
-12.665419 -0.15577357 -2.7831101 0 8
-12.660237 -0.3114332 -2.782603 0 8
-12.671397 -0.46766263 -2.786109 0 8
-12.642796 -0.62235129 -2.7812927 0 8
-12.627967 -0.77737123 -2.7799232 0 8
-12.616749 -0.93252808 -2.7797678 0 8
-12.601352 -1.0873303 -2.7791111 0 8
-12.588949 -1.2423781 -2.7795351 0 8
-12.601769 -1.4002999 -2.7859566 0 8
-12.560684 -1.5523076 -2.7808833 0 8
-12.532615 -1.7055374 -2.7791018 0 8
-12.482626 -1.8553314 -2.7728662 0 8
-12.46093 -2.0090041 -2.7733247 0 8
-12.453929 -2.1653073 -2.7774825 0 8
-12.4282 -2.318614 -2.7778928 0 8
-12.426878 -2.4768562 -2.7841945 0 8
-12.352508 -2.6203475 -2.7745414 0 8
-12.353443 -2.7797003 -2.7822185 0 8
-12.277556 -2.9216793 -2.7730091 0 8
-12.294209 -3.0858474 -2.78513 0 8
-12.251412 -3.2357411 -2.7842379 0 8
-12.183322 -3.3785419 -2.7779951 0 8
-12.145928 -3.5295599 -2.7791548 0 8
-12.117403 -3.683434 -2.7827811 0 8
-12.06504 -3.8301909 -2.7813616 0 8
-12.031989 -3.9831986 -2.7848232 0 8
-11.987049 -4.1325421 -2.7859724 0 8
-11.885757 -4.2618418 -2.7744009 0 8
-11.852454 -4.4151101 -2.7790895 0 8
-11.826476 -4.5717983 -2.7859693 0 8
-11.733172 -4.7023587 -2.777401 0 8
-11.703607 -4.8583651 -2.7843332 0 8
-11.607682 -4.9867334 -2.7758908 0 8
-11.519258 -5.1174254 -2.7695835 0 8
-11.523719 -5.2900062 -2.7860854 0 8
-11.422131 -5.4143863 -2.7774107 0 8
-11.331837 -5.5432367 -2.7718196 0 8
-11.326819 -5.7144356 -2.7875693 0 8
-11.213764 -5.8314643 -2.7771833 0 8
-11.14993 -5.9735718 -2.7793558 0 8
-11.077077 -6.1110082 -2.7797165 0 8
-10.994344 -6.2429075 -2.7780089 0 8
-10.905252 -6.3708982 -2.7750823 0 8
-10.817059 -6.4990745 -2.7727664 0 8
-10.754967 -6.643095 -2.7775791 0 8
-10.670178 -6.7733746 -2.7769821 0 8
-10.600335 -6.9133487 -2.7807188 0 8
-10.52422 -7.0496531 -2.7832813 0 8
-10.442227 -7.182292 -2.7847433 0 8
-10.288918 -7.2648044 -2.7674723 0 8
-10.229047 -7.4126711 -2.7756758 0 8
-10.154861 -7.5510664 -2.7805307 0 8
-10.000572 -7.6290669 -2.7637618 0 8
-9.9419889 -7.779604 -2.7737992 0 8
-9.8668537 -7.9183288 -2.7797918 0 8
-9.7257509 -8.003664 -2.7675567 0 8
-9.6589842 -8.1499624 -2.776865 0 8
-9.5846434 -8.2911167 -2.7845924 0 8
-9.4368553 -8.3683281 -2.771342 0 8
-9.3680811 -8.5153885 -2.7816846 0 8
-9.2306604 -8.6001053 -2.7720714 0 8
-9.1601267 -8.7472391 -2.7829804 0 8
-9.0247011 -8.8326044 -2.7746236 0 8
-8.9516001 -8.9791956 -2.7858844 0 8
-8.8139982 -9.0613165 -2.7775271 0 8
-8.66677 -9.1319695 -2.7663081 0 8
-8.5956926 -9.2830486 -2.7798457 0 8
-8.4596977 -9.364562 -2.7728951 0 8
-8.3313818 -9.4536495 -2.7687299 0 8
-8.2514572 -9.5983467 -2.7811816 0 8
-8.1140442 -9.6766882 -2.7747617 0 8
-7.9754496 -9.7524891 -2.7681668 0 8
-7.8471551 -9.8400593 -2.7654254 0 8
-7.7670307 -9.9891195 -2.7802656 0 8
-7.6255579 -10.060033 -2.773695 0 8
-7.4938879 -10.143017 -2.7709587 0 8
-7.3542848 -10.214499 -2.7655725 0 8
-7.2258263 -10.300858 -2.7646887 0 8
-7.1442494 -10.455696 -2.7824578 0 8
-7.0106692 -10.536013 -2.7806804 0 8
-6.8740387 -10.611299 -2.7780313 0 8
-6.7414565 -10.692493 -2.7773759 0 8
-6.6035151 -10.764855 -2.7748706 0 8
-6.4713249 -10.846356 -2.7751575 0 8
-6.3379474 -10.925921 -2.7753649 0 8
-6.1953168 -10.989168 -2.7718699 0 8
-6.0677085 -11.079079 -2.7755191 0 8
-5.9329433 -11.156452 -2.7764163 0 8
-5.7951698 -11.228266 -2.7763441 0 8
-5.6591406 -11.303598 -2.7775548 0 8
-5.5261011 -11.385455 -2.7807612 0 8
-5.3465343 -11.36927 -2.7605426 0 8
-5.2151647 -11.453533 -2.7652223 0 8
-5.0835366 -11.538566 -2.7704506 0 8
-4.9419003 -11.601656 -2.7707989 0 8
-4.8041468 -11.674346 -2.7738409 0 8
-4.6629424 -11.739333 -2.7754488 0 8
-4.50105 -11.750878 -2.764884 0 8
-4.358983 -11.812804 -2.7666335 0 8
-4.2193575 -11.88226 -2.7705398 0 8
-4.0539513 -11.877606 -2.7576232 0 8
-3.9197319 -11.963573 -2.7661827 0 8
-3.7772644 -12.026552 -2.7697957 0 8
-3.612766 -12.017733 -2.7573249 0 8
-3.47505 -12.097176 -2.7655389 0 8
-3.3337703 -12.167181 -2.7719617 0 8
-3.1697924 -12.1531 -2.7596653 0 8
-3.0325797 -12.241436 -2.7710469 0 8
-2.8678582 -12.218249 -2.7576072 0 8
-2.7282321 -12.301377 -2.7685878 0 8
-2.5689342 -12.296468 -2.7601647 0 8
-2.4244998 -12.36257 -2.7681012 0 8
-2.2667913 -12.36134 -2.7613761 0 8
-2.1233582 -12.439407 -2.772773 0 8
-1.9667189 -12.442245 -2.7678058 0 8
-1.805518 -12.410031 -2.7554927 0 8
-1.6608559 -12.491934 -2.7689342 0 8
-1.5036715 -12.482656 -2.7625704 0 8
-1.3484497 -12.485136 -2.7592411 0 8
-1.1998338 -12.553057 -2.7707815 0 8
-1.0434853 -12.543886 -2.7657163 0 8
-0.88848597 -12.546074 -2.7635808 0 8
-0.7322399 -12.523245 -2.7563603 0 8
-0.57835174 -12.534492 -2.7570622 0 8
-0.42406151 -12.536867 -2.7562294 0 8
-0.26958114 -12.52716 -2.7531583 0 8
-0.11562586 -12.539646 -2.7553816 0 8
0.038524255 -12.526994 -2.7524974 0 8
0.19258393 -12.527943 -2.7530181 0 8
0.34698054 -12.538117 -2.7559834 0 8
0.50133502 -12.53835 -2.7571812 0 8
0.65686917 -12.558123 -2.7630963 0 8
0.81061655 -12.539631 -2.7610123 0 8
0.96762568 -12.566233 -2.76928 0 8
1.1169527 -12.496232 -2.7566719 0 8
1.2729652 -12.505614 -2.7619858 0 8
1.4291514 -12.511069 -2.7668629 0 8
1.5772785 -12.448393 -2.7570825 0 8
1.7345113 -12.458889 -2.763922 0 8
1.8838181 -12.411907 -2.7584298 0 8
2.0417564 -12.421081 -2.7658389 0 8
2.1913266 -12.378096 -2.7620587 0 8
2.3371828 -12.317678 -2.7547817 0 8
2.4863379 -12.277539 -2.7524343 0 8
2.6501088 -12.306408 -2.7660027 0 8
2.7994008 -12.264912 -2.7642038 0 8
2.9467139 -12.215972 -2.7611315 0 8
3.0950305 -12.172277 -2.759649 0 8
3.243618 -12.130149 -2.7589316 0 8
3.3824856 -12.053594 -2.7507718 0 8
3.5354533 -12.028165 -2.7546813 0 8
3.6914306 -12.01096 -2.7609279 0 8
3.8213408 -11.910145 -2.7483475 0 8
3.9847426 -11.913832 -2.7602961 0 8
4.1234155 -11.84236 -2.755276 0 8
4.2612162 -11.77006 -2.7504377 0 8
4.4072933 -11.721245 -2.7514868 0 8
4.5457096 -11.652404 -2.7482402 0 8
4.6980529 -11.618914 -2.7537584 0 8
4.8451018 -11.57112 -2.7563429 0 8
4.9865074 -11.509516 -2.7560661 0 8
5.1187649 -11.427506 -2.7512922 0 8
5.251081 -11.346841 -2.7472093 0 8
5.4097209 -11.322275 -2.7571588 0 8
5.550704 -11.259323 -2.7582412 0 8
5.6673384 -11.148155 -2.7478721 0 8
5.8107901 -11.090623 -2.7510951 0 8
5.9412956 -11.008295 -2.7485876 0 8
6.0971351 -10.972086 -2.7580578 0 8
6.2113833 -10.86097 -2.7491181 0 8
6.3508539 -10.794652 -2.7518907 0 8
6.4752283 -10.702739 -2.7485495 0 8
6.6235108 -10.64993 -2.7556956 0 8
6.7585921 -10.574938 -2.7575867 0 8
6.8868718 -10.48916 -2.7570927 0 8
6.9971814 -10.376787 -2.7499638 0 8
7.1259074 -10.292377 -2.750607 0 8
7.2703094 -10.229857 -2.7575822 0 8
7.363307 -10.095497 -2.745563 0 8
7.5104728 -10.035724 -2.754215 0 8
7.6206679 -9.9261665 -2.7496572 0 8
7.7290273 -9.8150644 -2.7450004 0 8
7.8525085 -9.7234802 -2.7461839 0 8
7.9705386 -9.6250687 -2.7458627 0 8
8.0983782 -9.5382318 -2.7492905 0 8
8.2188168 -9.4422703 -2.7505531 0 8
8.3419819 -9.3491192 -2.7530906 0 8
8.4403105 -9.2283564 -2.7478838 0 8
8.5788679 -9.1513262 -2.7561495 0 8
8.6730824 -9.0267744 -2.7505496 0 8
8.773284 -8.9091625 -2.7473767 0 8
8.8688068 -8.7873831 -2.7432454 0 8
8.9759092 -8.6774082 -2.7431617 0 8
9.0857468 -8.569994 -2.7443166 0 8
9.1942711 -8.4611645 -2.7454627 0 8
9.2939425 -8.344183 -2.7443795 0 8
9.3931761 -8.2269478 -2.7436023 0 8
9.5312881 -8.143013 -2.7544882 0 8
9.5882044 -7.9898019 -2.7423365 0 8
9.7010088 -7.8837314 -2.7466657 0 8
9.8299522 -7.7898035 -2.7558453 0 8
9.8732386 -7.628366 -2.7414758 0 8
10.021796 -7.5482011 -2.7567449 0 8
10.071507 -7.3933253 -2.745204 0 8
10.136405 -7.2508721 -2.7383838 0 8
10.271688 -7.1583734 -2.7509432 0 8
10.348143 -7.0242157 -2.7480793 0 8
10.419812 -6.8872514 -2.7444143 0 8
10.477169 -6.741538 -2.7374804 0 8
10.62641 -6.6542501 -2.7548871 0 8
10.706244 -6.5223703 -2.7545831 0 8
10.766167 -6.3787065 -2.7496123 0 8
10.854162 -6.2518268 -2.7522442 0 8
10.920332 -6.1123667 -2.7497566 0 8
10.989731 -5.9749527 -2.7485235 0 8
11.074594 -5.8458309 -2.7515616 0 8
11.149075 -5.7109833 -2.7524111 0 8
11.153062 -5.5409813 -2.7363679 0 8
11.232334 -5.4092016 -2.739291 0 8
11.307005 -5.274889 -2.7414758 0 8
11.390589 -5.1443081 -2.7461967 0 8
11.498654 -5.0238209 -2.7571485 0 8
11.480761 -4.8487806 -2.7383544 0 8
11.570633 -4.7199473 -2.7457397 0 8
11.658067 -4.589241 -2.7528887 0 8
11.655948 -4.423667 -2.7393365 0 8
11.741544 -4.2917442 -2.7468426 0 8
11.762014 -4.1360054 -2.7395265 0 8
11.825265 -3.9955614 -2.7426078 0 8
11.921898 -3.8655541 -2.7537873 0 8
11.924272 -3.7049258 -2.7436051 0 8
12.018281 -3.5727029 -2.7549191 0 8
12.017467 -3.4122155 -2.7449071 0 8
12.018756 -3.2534339 -2.7358568 0 8
12.119963 -3.1214075 -2.7499497 0 8
12.101023 -2.9583611 -2.7371917 0 8
12.193677 -2.8225882 -2.7500908 0 8
12.212296 -2.6691325 -2.7466803 0 8
12.201362 -2.5099635 -2.7370725 0 8
12.305808 -2.374126 -2.7537453 0 8
12.29059 -2.2148049 -2.7440381 0 8
12.312233 -2.0627372 -2.743 0 8
12.283627 -1.902979 -2.7312071 0 8
12.39556 -1.7645367 -2.7510629 0 8
12.380637 -1.6073607 -2.7431569 0 8
12.410125 -1.4562634 -2.7455151 0 8
12.397656 -1.3004764 -2.739012 0 8
12.407887 -1.1474962 -2.7379477 0 8
12.41065 -0.9940142 -2.7356536 0 8
12.501999 -0.84676623 -2.7532861 0 8
12.497255 -0.69219631 -2.750159 0 8
12.488101 -0.53776342 -2.7464817 0 8
12.51165 -0.38472465 -2.7504125 0 8
12.506139 -0.23068659 -2.7483697 0 8
12.496202 -0.076826692 -2.7457707 0 8
12.49786 0.076836884 -2.746135 0 8
12.496222 0.23050366 -2.7461901 0 8
12.50495 0.38451859 -2.7489395 0 8
12.49283 0.53796709 -2.7475219 0 8
12.500529 0.69237763 -2.7508795 0 8
12.506725 0.84708637 -2.7543271 0 8
12.407403 0.99375409 -2.7349379 0 8
12.408934 1.147593 -2.7381787 0 8
12.399155 1.3006335 -2.7393429 0 8
12.395489 1.454546 -2.7422771 0 8
12.395364 1.6092726 -2.7464199 0 8
12.411979 1.766874 -2.7547069 0 8
12.293218 1.9044647 -2.7333395 0 8
12.303231 2.061229 -2.7409947 0 8
12.291621 2.2149906 -2.7442684 0 8
12.301409 2.3732772 -2.7527611 0 8
12.217079 2.5131967 -2.7405982 0 8
12.209146 2.6684439 -2.7459717 0 8
12.197718 2.8235235 -2.7510023 0 8
12.105641 2.9594903 -2.7382364 0 8
12.099212 3.1160634 -2.7452414 0 8
12.035145 3.2578704 -2.7395875 0 8
12.007596 3.4094126 -2.7426524 0 8
12.010932 3.5705183 -2.7532344 0 8
11.916722 3.7025802 -2.741868 0 8
11.919943 3.8649204 -2.7533357 0 8
11.844431 4.002037 -2.7470529 0 8
11.737552 4.1274033 -2.7338288 0 8
11.73767 4.290328 -2.7459364 0 8
11.661391 4.4257326 -2.7406156 0 8
11.656191 4.5885024 -2.7524457 0 8
11.586464 4.7264051 -2.7494965 0 8
11.486668 4.8512754 -2.7397635 0 8
11.489285 5.0197277 -2.7549019 0 8
11.405288 5.1509461 -2.7497404 0 8
11.306626 5.2747126 -2.741384 0 8
11.233128 5.409584 -2.7394845 0 8
11.154672 5.5417814 -2.736763 0 8
11.152576 5.7127771 -2.7532756 0 8
11.085409 5.8515401 -2.7542489 0 8
10.987391 5.9736805 -2.7479382 0 8
10.91572 6.1097856 -2.7485952 0 8
10.846043 6.2471499 -2.7501853 0 8
10.776868 6.3850465 -2.7523453 0 8
10.704055 6.5210366 -2.75402 0 8
10.626161 6.6540937 -2.7548223 0 8
10.489204 6.7492819 -2.7406251 0 8
10.408406 6.8797126 -2.7414103 0 8
10.345682 7.0225458 -2.7474258 0 8
10.281163 7.1649766 -2.7534809 0 8
10.140471 7.2537804 -2.7394819 0 8
10.074007 7.3951602 -2.7458854 0 8
10.015697 7.5436068 -2.7550671 0 8
9.8981676 7.6476269 -2.7483978 0 8
9.8291531 7.7891698 -2.755621 0 8
9.7051229 7.8870754 -2.7478306 0 8
9.5865974 7.9884629 -2.7418771 0 8
9.5321226 8.1437263 -2.7547293 0 8
9.3949814 8.2285299 -2.7441299 0 8
9.2955017 8.345583 -2.7448399 0 8
9.1905069 8.4577007 -2.7443385 0 8
9.0861006 8.5703278 -2.7444232 0 8
8.9709949 8.672658 -2.7416601 0 8
8.8784857 8.7969723 -2.7462389 0 8
8.7809963 8.9169941 -2.7497916 0 8
8.6793613 9.033309 -2.7525408 0 8
8.5836477 9.1564245 -2.7576849 0 8
8.4406633 9.2287426 -2.7479987 0 8
8.352581 9.3609972 -2.7565885 0 8
8.2263851 9.4509668 -2.7530861 0 8
8.0921431 9.5308876 -2.7471738 0 8
7.9646616 9.6179724 -2.7438383 0 8
7.8556924 9.7274227 -2.7472973 0 8
7.7254767 9.8105555 -2.7437394 0 8
7.6181006 9.922822 -2.7487309 0 8
7.5090361 10.033804 -2.7536881 0 8
7.3735313 10.109515 -2.7493753 0 8
7.2522106 10.204391 -2.7507176 0 8
7.124115 10.289787 -2.7499151 0 8
7.000742 10.382068 -2.751363 0 8
6.8735418 10.468857 -2.7517562 0 8
6.7630777 10.581957 -2.7594171 0 8
6.6171679 10.639732 -2.7530565 0 8
6.4760642 10.704121 -2.7489042 0 8
6.3487024 10.790996 -2.7509584 0 8
6.2059822 10.851526 -2.7467277 0 8
6.1006551 10.97842 -2.7596502 0 8
5.9431667 11.011762 -2.7494533 0 8
5.8165689 11.101652 -2.7538311 0 8
5.6693087 11.152031 -2.7488275 0 8
5.547996 11.25383 -2.7568955 0 8
5.4082532 11.319203 -2.7564106 0 8
5.251399 11.347528 -2.7473757 0 8
5.1260667 11.443808 -2.7552171 0 8
4.9917059 11.521514 -2.758939 0 8
4.8389082 11.556329 -2.7528195 0 8
4.6942167 11.609426 -2.7515097 0 8
4.5531683 11.671523 -2.7527497 0 8
4.4046783 11.71429 -2.7498538 0 8
4.2639103 11.777502 -2.7521768 0 8
4.123456 11.842476 -2.7553029 0 8
3.9854801 11.916036 -2.7608068 0 8
3.8284905 11.932429 -2.7534897 0 8
3.6922488 12.013622 -2.7615399 0 8
3.5372372 12.034233 -2.7560713 0 8
3.3807178 12.047294 -2.7493339 0 8
3.2488477 12.149706 -2.7633798 0 8
3.0950611 12.172398 -2.7596762 0 8
2.9500551 12.229823 -2.7642622 0 8
0.23237251 1.0180851 -0.22945088 0 8
0.2095502 0.97309595 -0.21871419 0 8
0.19690959 0.97233969 -0.21798351 0 8
0.18776168 0.98956239 -0.22131024 0 8
0.16743441 0.94578278 -0.21104278 0 8
0.15703918 0.95535219 -0.21273112 0 8
0.14498751 0.95527881 -0.21230173 0 8
0.30731842 2.2074494 -0.48970807 0 8
0.28385383 2.2402661 -0.49617639 0 8
0.2592786 2.2697754 -0.50196803 0 8
0.10061262 0.9884187 -0.21830182 0 8
0.089257278 0.99859172 -0.22028957 0 8
0.96767116 12.566824 -2.7694101 0 8
0.81182933 12.558393 -2.7651432 0 8
0.65621704 12.545654 -2.7603531 0 8
0.5017221 12.54803 -2.7593098 0 8
0.34693298 12.536399 -2.7556057 0 8
0.19262329 12.530502 -2.7535808 0 8
0.038537636 12.531344 -2.7534535 0 8
-0.11572642 12.550551 -2.7577779 0 8
-0.26997513 12.545468 -2.7571819 0 8
-0.42423058 12.541865 -2.7573283 0 8
-0.11754236 2.5474703 -0.56033653 0 8
-0.13247037 2.2655947 -0.49865636 0 8
-0.12679923 1.790498 -0.39440113 0 8
-0.14760725 1.774408 -0.39122716 0 8
-0.19528084 2.0430925 -0.45096293 0 8
-0.10293405 0.95305413 -0.21062694 0 8
-0.11484507 0.9533807 -0.21099527 0 8
-0.12619317 0.94914711 -0.21038584 0 8
-0.13939136 0.95809126 -0.21273223 0 8
-0.15426734 0.97595644 -0.21710373 0 8
-0.16586128 0.97167587 -0.21658884 0 8
-0.17672934 0.96374613 -0.21528941 0 8
-0.44015992 2.2443838 -0.50253963 0 8
-0.46950948 2.2473552 -0.50445956 0 8
-0.49765861 2.2439022 -0.5050199 0 8
-0.5246461 2.2352071 -0.50447679 0 8
-0.55401254 2.2363498 -0.50623393 0 8
-0.5820145 2.2314649 -0.50670987 0 8
-0.61388648 2.2404864 -0.51043403 0 8
-0.64014179 2.2284305 -0.50944221 0 8
-0.67367315 2.2409487 -0.51415884 0 8
-0.70219219 2.2357321 -0.51490408 0 8
-0.72917998 2.2255597 -0.51458746 0 8
-0.75185227 2.2028399 -0.51143318 0 8
-0.78091019 2.1991446 -0.51276594 0 8
-0.8086732 2.1914971 -0.51326251 0 8
-0.83744299 2.1863101 -0.51442057 0 8
-0.86338627 2.1736445 -0.51389962 0 8
-0.89489591 2.1746471 -0.51669919 0 8
-0.92102146 2.1621995 -0.51639348 0 8
-0.93491143 2.1220536 -0.5095126 0 8
-0.94228703 2.0694485 -0.49962622 0 8
-0.9479205 2.015729 -0.48943385 0 8
-0.94750375 1.9521468 -0.47678852 0 8
-0.95263255 1.9027934 -0.4675602 0 8
-0.95540112 1.8511102 -0.45771262 0 8
-0.9528327 1.7917299 -0.44589338 0 8
-0.9577958 1.7488474 -0.43811938 0 8
-0.96488291 1.7114961 -0.43170187 0 8
-0.96213013 1.6586061 -0.42131341 0 8
-0.98306108 1.6476735 -0.42157507 0 8
-1.0210818 1.6645374 -0.42906997 0 8
-1.041548 1.6519791 -0.42910171 0 8
-1.3158284 2.0312147 -0.53177077 0 8
-1.3158416 1.977518 -0.52190948 0 8
-1.3206367 1.9327681 -0.514346 0 8
-1.311792 1.8700399 -0.50190753 0 8
-1.3046544 1.8120579 -0.49061415 0 8
-1.3144659 1.7791364 -0.48604015 0 8
-1.3054399 1.7222042 -0.47483632 0 8
-1.3083665 1.6826802 -0.46833938 0 8
-1.3168858 1.651329 -0.46408534 0 8
-1.3453099 1.6450634 -0.4669382 0 8
-1.347697 1.6072435 -0.46087229 0 8
-1.3523083 1.5730462 -0.45580009 0 8
-8.3212757 9.4421816 -2.7653713 0 8
-8.4540157 9.3582735 -2.7710328 0 8
-8.5982761 9.2858391 -2.7806811 0 8
-8.6747217 9.1403475 -2.7688463 0 8
-8.8151245 9.0624743 -2.7778819 0 8
-8.9454603 8.9730368 -2.7839737 0 8
-9.0211525 8.8291321 -2.7735329 0 8
-9.1563911 8.7436733 -2.7818456 0 8
-1.0413185 0.97018504 -0.31271967 0 8
-1.0635957 0.96678597 -0.31581575 0 8
-1.0998573 0.97532129 -0.32299748 0 8
-1.1223544 0.97088343 -0.32607365 0 8
-1.13757 0.95984757 -0.32704043 0 8
-1.1644642 0.95827883 -0.3313596 0 8
-1.1889093 0.95412117 -0.33495179 0 8
-1.2127858 0.94900465 -0.33836535 0 8
-1.2362232 0.94306898 -0.3416431 0 8
-1.2652141 0.94080222 -0.34643179 0 8
-1.3088666 0.94849485 -0.35516402 0 8
-1.3467361 0.95090419 -0.36223975 0 8
-10.460881 7.1951222 -2.7897179 0 8
-10.521767 7.0480099 -2.7826326 0 8
-10.604325 6.9159508 -2.7817657 0 8
-10.680505 6.7799292 -2.7796693 0 8
-10.767031 6.6505466 -2.7806947 0 8
-10.828251 6.5057988 -2.7756355 0 8
-10.926949 6.3835735 -2.7806036 0 8
-10.985641 6.2379656 -2.7758098 0 8
-1.3308742 0.73421741 -0.33397377 0 8
-1.3176655 0.70593894 -0.32845595 0 8
-11.241429 5.8458509 -2.7840347 0 8
-11.330573 5.7163291 -2.7884932 0 8
-1.4671911 0.71771133 -0.35888171 0 8
-1.4477354 0.68626416 -0.35203207 0 8
-11.503325 5.2806444 -2.7811546 0 8
-11.525702 5.1202879 -2.7711329 0 8
-11.616107 4.9903526 -2.7779055 0 8
-11.699531 4.8566732 -2.7833636 0 8
-11.726308 4.6996078 -2.7757761 0 8
-11.822369 4.57021 -2.7850015 0 8
-11.865051 4.4198027 -2.7820432 0 8
-11.879429 4.259572 -2.7729235 0 8
-11.991052 4.1339221 -2.7869027 0 8
-12.013315 3.9770164 -2.7805009 0 8
-12.063895 3.8298273 -2.7810977 0 8
-12.108445 3.6807108 -2.7807238 0 8
-12.141409 3.5282466 -2.7781208 0 8
-12.201192 3.3834975 -2.7820697 0 8
-12.243422 3.2336309 -2.7824218 0 8
-12.297523 3.086679 -2.7858806 0 8
-12.281281 2.9225657 -2.7738504 0 8
-12.359555 2.7810757 -2.7835951 0 8
-12.353894 2.6206415 -2.7748528 0 8
-12.426112 2.4767034 -2.7840228 0 8
-12.428444 2.3186595 -2.7779474 0 8
-12.459687 2.1663084 -2.7787666 0 8
-12.451763 2.0075262 -2.7712846 0 8
-12.498507 1.8576921 -2.7763944 0 8
-12.514403 1.7030591 -2.7750638 0 8
-12.563684 1.5526785 -2.7815475 0 8
-12.606237 1.4007964 -2.7869446 0 8
-12.593755 1.2428523 -2.780596 0 8
-12.598596 1.0870926 -2.7785034 0 8
-12.596623 0.93104053 -2.7753336 0 8
-12.623912 0.77712166 -2.7790306 0 8
-12.642024 0.62231326 -2.7811229 0 8
-12.664763 0.46741781 -2.7846503 0 8
-12.645419 0.31106865 -2.779346 0 8
-12.659707 0.15570332 -2.7818553 0 8
-12.654391 3.3579563e-05 -2.7804768 0 8
-13.264663 -3.5198973e-05 -2.7868447 0 9
-13.26458 -0.16314273 -2.7870381 0 9
-13.290885 -0.32694668 -2.7931986 0 9
-13.251548 -0.48907423 -2.7859848 0 9
-13.222795 -0.65090221 -2.7814126 0 9
-13.271883 -0.8170104 -2.7936401 0 9
-13.199704 -0.97561538 -2.7807617 0 9
-13.214871 -1.140269 -2.7867002 0 9
-13.21378 -1.3040414 -2.7896407 0 9
-13.182714 -1.464854 -2.786674 0 9
-13.139864 -1.6238854 -2.7816269 0 9
-13.176253 -1.7931288 -2.7937868 0 9
-13.159821 -1.9559851 -2.795191 0 9
-13.064386 -2.1062958 -2.7802114 0 9
-13.05464 -2.2697501 -2.7838664 0 9
-13.047407 -2.4341338 -2.788496 0 9
-12.971941 -2.5854952 -2.7789519 0 9
-12.988601 -2.7552824 -2.7895682 0 9
-12.919463 -2.907063 -2.7821863 0 9
-12.936666 -3.0785267 -2.7938316 0 9
-12.884631 -3.2340434 -2.7909715 0 9
-12.829401 -3.3883948 -2.7878225 0 9
-12.77918 -3.5437784 -2.7861676 0 9
-12.738764 -3.7018359 -2.7870698 0 9
-12.707101 -3.8626895 -2.7903233 0 9
-12.658357 -4.0185461 -2.7902594 0 9
-12.572649 -4.1621842 -2.782438 0 9
-12.52391 -4.317625 -2.783191 0 9
-12.495197 -4.4803667 -2.7888427 0 9
-12.395863 -4.6175327 -2.7791343 0 9
-12.378458 -4.7851796 -2.7882135 0 9
-12.266953 -4.9162841 -2.776504 0 9
-12.275392 -5.0957227 -2.7923856 0 9
-12.165155 -5.2262273 -2.7817175 0 9
-12.08766 -5.3699379 -2.7788861 0 9
-12.081284 -5.545958 -2.7928867 0 9
-11.976947 -5.6773839 -2.7846951 0 9
-11.89302 -5.8177528 -2.7816041 0 9
-11.795565 -5.9509196 -2.7757158 0 9
-11.802695 -6.1377249 -2.7949424 0 9
-11.70998 -6.2736182 -2.7910438 0 9
-11.625245 -6.4134216 -2.7894332 0 9
-11.560142 -6.5641837 -2.7929683 0 9
-11.461343 -6.6957688 -2.7887797 0 9
-11.397119 -6.8475842 -2.7934294 0 9
-11.230423 -6.9367733 -2.7732692 0 9
-11.160981 -7.0849333 -2.7774246 0 9
-11.072971 -7.2215939 -2.7774115 0 9
-11.019267 -7.3812609 -2.7864962 0 9
-10.920829 -7.5114803 -2.7847497 0 9
-10.857477 -7.6662536 -2.7924221 0 9
-10.714592 -7.7645307 -2.780019 0 9
-10.629518 -7.904017 -2.7829525 0 9
-10.557196 -8.0536947 -2.7897346 0 9
-10.409163 -8.1451674 -2.7768734 0 9
-10.343731 -8.3010311 -2.7864377 0 9
-10.196668 -8.3911991 -2.7744071 0 9
-10.124542 -8.5427866 -2.783154 0 9
-10.036539 -8.6820259 -2.7880991 0 9
-9.9036283 -8.7822475 -2.7809658 0 9
-9.8275394 -8.9330263 -2.7902339 0 9
-9.6850348 -9.0234413 -2.7810664 0 9
-9.6101379 -9.1769676 -2.7917521 0 9
-9.4690256 -9.2674713 -2.783653 0 9
-9.3129377 -9.3416471 -2.7713263 0 9
-9.2435131 -9.502883 -2.785229 0 9
-9.096981 -9.5852718 -2.7763813 0 9
-9.0293713 -9.7514076 -2.7921317 0 9
-8.8871021 -9.8376837 -2.7853343 0 9
-8.729722 -9.9056473 -2.7739747 0 9
-8.5914097 -9.9937887 -2.7688642 0 9
-8.5281839 -10.170587 -2.7885823 0 9
-8.3840437 -10.252124 -2.7824616 0 9
-8.2300882 -10.320244 -2.7732735 0 9
-8.0937271 -10.409281 -2.770246 0 9
-8.020998 -10.581717 -2.7896774 0 9
-7.8788476 -10.664062 -2.7856343 0 9
-7.7295022 -10.735644 -2.7792952 0 9
-7.592309 -10.823302 -2.7776093 0 9
-7.4447522 -10.895486 -2.7724314 0 9
-7.3102317 -10.986212 -2.7724342 0 9
-7.1610599 -11.054366 -2.7672031 0 9
-7.0273771 -11.145986 -2.7682972 0 9
-6.8912668 -11.23394 -2.7688866 0 9
-6.7937708 -11.386797 -2.7857609 0 9
-6.6624393 -11.48531 -2.7896085 0 9
-6.5170503 -11.559855 -2.7880397 0 9
-6.3737974 -11.637969 -2.787766 0 9
-6.190186 -11.640177 -2.7698522 0 9
-6.0336471 -11.690321 -2.7639205 0 9
