# .PCD v0.7 - Point Cloud Data file format
VERSION 0.7
FIELDS x y z intensity ring
SIZE 4 4 4 4 2
TYPE F F F F U
COUNT 1 1 1 1 1
WIDTH 1302
HEIGHT 1
VIEWPOINT 0 0 0 1 0 0 0
POINTS 1302
DATA ascii
0.34398189 -1.0284585 -0.25929508 0 6
0.36255774 -1.0412579 -0.26362613 0 6
0.639718 -1.7669884 -0.44932449 0 6
0.66241473 -1.7616991 -0.45001674 0 6
0.68604445 -1.7585961 -0.45134488 0 6
0.71457487 -1.7672393 -0.45578387 0 6
0.74003351 -1.7673554 -0.45812607 0 6
0.77072561 -1.7789363 -0.46354958 0 6
0.78839612 -1.7600733 -0.46112564 0 6
0.80852038 -1.7470978 -0.46029606 0 6
0.84570837 -1.7700254 -0.46904099 0 6
0.87234652 -1.7695109 -0.47171149 0 6
0.89701599 -1.7645098 -0.47328293 0 6
0.92696744 -1.7692338 -0.47757125 0 6
0.94723195 -1.7550731 -0.47685686 0 6
0.97888118 -1.7615434 -0.48184884 0 6
1.0081831 -1.7628678 -0.48556545 0 6
1.0392827 -1.766486 -0.49004504 0 6
1.0678301 -1.7649889 -0.49323496 0 6
1.0995326 -1.7679363 -0.49779937 0 6
1.131898 -1.7710422 -0.50255489 0 6
0.96894497 -1.475767 -0.42211595 0 6
0.97174108 -1.4410875 -0.41558287 0 6
0.96972507 -1.4006321 -0.40732425 0 6
0.97394127 -1.3704067 -0.40198666 0 6
0.9680025 -1.3271844 -0.39276996 0 6
0.95785278 -1.2799121 -0.38223687 0 6
0.97529179 -1.270349 -0.3829335 0 6
0.96537483 -1.225926 -0.37309274 0 6
0.9726457 -1.2043923 -0.37015116 0 6
0.97044444 -1.17189 -0.36380202 0 6
0.96649778 -1.1383364 -0.35704806 0 6
0.96739483 -1.1114013 -0.35230416 0 6
0.96441931 -1.0808548 -0.34635416 0 6
0.9691537 -1.0596406 -0.34334907 0 6
0.96750695 -1.0320675 -0.33824402 0 6
0.96558189 -1.0049587 -0.33322561 0 6
0.96266049 -0.97757 -0.32804427 0 6
0.9588747 -0.95007133 -0.32274872 0 6
0.97405595 -0.94166291 -0.3239367 0 6
0.96936584 -0.91433978 -0.31861377 0 6
0.96087182 -0.88425654 -0.31222448 0 6
0.98645252 -0.88564569 -0.31697398 0 6
1.0117638 -0.88614637 -0.32158157 0 6
1.0553144 -0.9016031 -0.33187491 0 6
1.0921934 -0.91011918 -0.33992746 0 6
1.1297848 -0.91814375 -0.3480871 0 6
1.1637471 -0.92221814 -0.35503015 0 6
1.1935949 -0.92220789 -0.3606492 0 6
1.2265812 -0.9238345 -0.36715594 0 6
1.2911167 -0.94778717 -0.38295603 0 6
1.3423771 -0.96024227 -0.39462823 0 6
1.3902327 -0.96885777 -0.40516374 0 6
1.4503132 -0.98445815 -0.41911376 0 6
1.5009593 -0.99209887 -0.43019164 0 6
1.5753319 -1.0136478 -0.4479014 0 6
1.6145579 -1.0110348 -0.45548502 0 6
1.6937176 -1.0318328 -0.47420162 0 6
1.3486692 -0.79905546 -0.37481681 0 6
1.3546283 -0.78024459 -0.37377828 0 6
1.3531221 -0.75737429 -0.37076497 0 6
1.3736783 -0.7468484 -0.37385288 0 6
1.3856099 -0.73140752 -0.37462407 0 6
1.4042721 -0.71932197 -0.37724978 0 6
1.4538739 -0.72230279 -0.38815963 0 6
1.4995681 -0.72215325 -0.39795834 0 6
1.547701 -0.72202593 -0.40834492 0 6
1.5866662 -0.71658278 -0.41626921 0 6
1.6446947 -0.71857554 -0.42914265 0 6
1.7161133 -0.72478271 -0.44541848 0 6
1.7627511 -0.71906972 -0.45519397 0 6
1.8311018 -0.72081995 -0.47051975 0 6
1.8944017 -0.71896356 -0.48447692 0 6
1.9632863 -0.7176162 -0.4997991 0 6
2.0499113 -0.72083265 -0.51955569 0 6
1.9270606 -0.65112191 -0.48635283 0 6
1.9250879 -0.62419021 -0.48388129 0 6
1.9266826 -0.59862912 -0.48239541 0 6
0.69070172 -0.20532654 -0.17229009 0 6
0.69257319 -0.19664784 -0.17214073 0 6
0.71248728 -0.19286774 -0.17648761 0 6
0.70651656 -0.18195817 -0.1744412 0 6
0.70478493 -0.17230017 -0.17347744 0 6
0.69371432 -0.16058075 -0.1702536 0 6
0.70615357 -0.15433769 -0.17282765 0 6
0.71779448 -0.14765875 -0.17521907 0 6
0.71936512 -0.13878515 -0.17517266 0 6
0.72026801 -0.12979467 -0.17499064 0 6
0.71878529 -0.12042211 -0.17425747 0 6
0.72291183 -0.11199348 -0.1749108 0 6
0.72330296 -0.10296385 -0.1746859 0 6
0.73989636 -0.096059695 -0.17839463 0 6
0.71089476 -0.083419792 -0.17114188 0 6
0.72243285 -0.07578101 -0.17368211 0 6
0.76185542 -0.070457302 -0.18293768 0 6
0.86436188 -0.069229893 -0.20733157 0 6
1.0015752 -0.067837156 -0.24002624 0 6
1.4229128 -0.0788121 -0.34074125 0 6
1.5984371 -0.068832003 -0.38254198 0 6
6.4499154 -0.19833048 -1.5429097 0 6
6.4564505 -0.11909484 -1.544006 0 6
6.4463992 -0.039632484 -1.5413693 0 6
6.4577808 0.039702456 -1.5440906 0 6
6.458591 0.11913432 -1.5445179 0 6
6.450151 0.19833772 -1.5429661 0 6
6.4580436 0.27809671 -1.5455552 0 6
6.4488544 0.35718828 -1.5442905 0 6
6.4481635 0.43673712 -1.5452943 0 6
6.4397855 0.51578587 -1.5446897 0 6
6.4515071 0.59664309 -1.5491439 0 6
6.453773 0.67698115 -1.5515697 0 6
6.4565158 0.75763845 -1.5543513 0 6
6.4026494 0.83124691 -1.5437274 0 6
6.4062691 0.91194725 -1.547187 0 6
6.4164176 0.99403119 -1.5524725 0 6
6.4102759 1.0739493 -1.5540643 0 6
6.3603311 1.1461526 -1.5452559 0 6
6.3567228 1.2263852 -1.5479261 0 6
6.3573728 1.3077863 -1.5518829 0 6
6.3214393 1.3816206 -1.5471414 0 6
6.315752 1.4619681 -1.5500321 0 6
6.2690744 1.532613 -1.5430849 0 6
6.2626548 1.6129009 -1.5462697 0 6
6.2705307 1.6974101 -1.5532502 0 6
6.2225485 1.7668179 -1.5466293 0 6
6.2062654 1.8449513 -1.5481038 0 6
6.1865425 1.9221871 -1.5489628 0 6
6.1828504 2.0047264 -1.5540929 0 6
6.1341939 2.0726426 -1.548152 0 6
6.1007371 2.1452687 -1.5462488 0 6
6.0917439 2.2266412 -1.5507917 0 6
6.0458937 2.2945383 -1.5461853 0 6
6.0229564 2.3709588 -1.5476582 0 6
6.01122 2.4521251 -1.552273 0 6
5.9817266 2.5263205 -1.5525616 0 6
5.9284477 2.590169 -1.5468827 0 6
5.8975616 2.6635032 -1.5472524 0 6
5.8476105 2.727999 -1.5428317 0 6
5.8455472 2.8150644 -1.5513028 0 6
5.818171 2.8905404 -1.5533528 0 6
5.7759261 2.9586508 -1.55167 0 6
5.7375827 3.0286384 -1.5512568 0 6
5.7111731 3.1050797 -1.5543219 0 6
5.6621189 3.1692212 -1.5514604 0 6
5.6265564 3.240808 -1.5525179 0 6
5.5690451 3.299531 -1.547727 0 6
5.5294361 3.368598 -1.5481138 0 6
5.4912128 3.4385934 -1.5491332 0 6
5.4586782 3.5123882 -1.5520219 0 6
5.4209766 3.5831385 -1.5537122 0 6
5.3577681 3.6367996 -1.5482961 0 6
5.3329859 3.7165756 -1.5542237 0 6
5.2668676 3.7675471 -1.5483388 0 6
5.2225184 3.8337634 -1.5490427 0 6
5.1674752 3.8920307 -1.5467947 0 6
5.1311116 3.9644537 -1.5503848 0 6
5.0790162 4.0248961 -1.5494809 0 6
5.0211697 4.0805607 -1.5470241 0 6
5.0006027 4.1669769 -1.5563567 0 6
4.9441347 4.2239995 -1.5548298 0 6
4.8863206 4.2796502 -1.5530804 0 6
4.8316746 4.3379197 -1.5525482 0 6
4.7798395 4.3987184 -1.5531551 0 6
4.7244105 4.4562292 -1.5528319 0 6
4.658556 4.5036321 -1.5492717 0 6
4.6008687 4.5586286 -1.5486118 0 6
4.5456586 4.6160607 -1.5490167 0 6
4.4875627 4.6705675 -1.5486732 0 6
4.444684 4.7412724 -1.5538779 0 6
4.3767214 4.7853622 -1.5505725 0 6
4.3122468 4.8328695 -1.5486674 0 6
4.2683959 4.90379 -1.5544571 0 6
4.2046304 4.9521933 -1.5532939 0 6
4.1590796 5.0224247 -1.5591636 0 6
4.0715842 5.0416965 -1.5494866 0 6
4.0140066 5.097373 -1.5513111 0 6
3.9452999 5.1388803 -1.549062 0 6
3.8859596 5.1925383 -1.5507154 0 6
3.8254116 5.2448483 -1.5521723 0 6
3.7592483 5.2895374 -1.5516003 0 6
3.6989427 5.3426051 -1.5537074 0 6
3.6346812 5.3902154 -1.554438 0 6
3.5609527 5.4235654 -1.5513109 0 6
3.4904568 5.4613986 -1.5497386 0 6
3.4271286 5.5104737 -1.5515889 0 6
3.3618295 5.5566816 -1.5528425 0 6
3.2926672 5.5966015 -1.5525663 0 6
3.22876 5.6456771 -1.5550491 0 6
3.1522257 5.6725807 -1.5516657 0 6
3.0886517 5.7227902 -1.5548934 0 6
3.0173459 5.7589841 -1.554529 0 6
2.9498613 5.8026376 -1.5564036 0 6
2.8673408 5.816256 -1.550482 0 6
2.7965136 5.852963 -1.5509832 0 6
2.7362373 5.9126205 -1.5577582 0 6
2.6630554 5.9452004 -1.5575967 0 6
2.5868685 5.9708328 -1.5558608 0 6
2.5132854 6.0022531 -1.5558776 0 6
2.4400632 6.0346031 -1.5563679 0 6
2.3640554 6.0599837 -1.555299 0 6
2.2841442 6.0747061 -1.5517516 0 6
2.2163002 6.1217237 -1.5566828 0 6
2.1420929 6.1520443 -1.5575773 0 6
2.0562131 6.1477938 -1.5499825 0 6
1.9871819 6.1935396 -1.5552377 0 6
1.9088928 6.2110429 -1.5536213 0 6
1.8399862 6.2599201 -1.56007 0 6
1.75797 6.2645812 -1.5557266 0 6
1.6772023 6.2722287 -1.5523869 0 6
1.6053988 6.3137856 -1.5576686 0 6
1.5274624 6.3322864 -1.5574814 0 6
1.4499996 6.3528299 -1.5580311 0 6
1.3671793 6.3488207 -1.5528075 0 6
1.2941256 6.3903933 -1.5589654 0 6
1.2100459 6.3773179 -1.5520284 0 6
1.1377138 6.4265771 -1.5604938 0 6
1.0559822 6.4240971 -1.556621 0 6
0.98049551 6.4601879 -1.5623267 0 6
0.89639008 6.4387155 -1.5543506 0 6
0.82003611 6.4719901 -1.5598311 0 6
0.73748988 6.45613 -1.5537056 0 6
0.65934056 6.4773636 -1.5567467 0 6
0.57765996 6.4627385 -1.5514073 0 6
0.50087208 6.5046592 -1.5598741 0 6
0.42011473 6.4988604 -1.557127 0 6
0.34024304 6.504817 -1.5574341 0 6
0.26071471 6.5204549 -1.5602926 0 6
0.17998432 6.5037203 -1.5556411 0 6
0.10015312 6.5151463 -1.5579616 0 6
0.020011339 6.5071192 -1.5558656 0 6
-0.059940688 6.5005789 -1.5543606 0 6
-0.13997659 6.5045686 -1.5556086 0 6
-0.21986432 6.5000238 -1.5550507 0 6
-0.29951596 6.4913449 -1.5537379 0 6
-0.37974358 6.4946227 -1.5555226 0 6
-0.45961648 6.4901218 -1.5556806 0 6
-0.53949189 6.4853096 -1.5559996 0 6
-0.61967927 6.4832892 -1.5572253 0 6
-0.70178962 6.4977865 -1.562662 0 6
-0.78126657 6.4856462 -1.5619347 0 6
-0.85606104 6.4387627 -1.5530615 0 6
-0.93712956 6.441258 -1.5563252 0 6
-1.0192205 6.4479933 -1.5608627 0 6
-1.089574 6.383122 -1.5482855 0 6
-1.1751878 6.4085727 -1.5578462 0 6
-1.257212 6.4105477 -1.5619662 0 6
-1.3328251 6.379704 -1.5583264 0 6
-1.4117583 6.3655033 -1.5589801 0 6
-1.4861144 6.3314552 -1.5549994 0 6
-1.5703139 6.3387938 -1.5614259 0 6
-1.6447843 6.3061633 -1.5582525 0 6
-1.7262853 6.3003821 -1.561951 0 6
-1.7978998 6.2587619 -1.556996 0 6
-1.8843285 6.2681489 -1.564977 0 6
-1.9570298 6.2310495 -1.5616046 0 6
-2.0439901 6.2385454 -1.5696634 0 6
-2.1087437 6.1783738 -1.5609301 0 6
-2.1804659 6.1404757 -1.5580115 0 6
-2.2469194 6.0891309 -1.5518768 0 6
-2.3401182 6.1093402 -1.5642427 0 6
-2.4121232 6.0727143 -1.5623412 0 6
-2.4730814 6.0097256 -1.5538422 0 6
-2.5472722 5.9800019 -1.5541381 0 6
-2.6398168 5.9918323 -1.5655304 0 6
-2.7124112 5.9569912 -1.5650233 0 6
-2.7827992 5.917552 -1.5635335 0 6
-2.8496416 5.8711309 -1.5604087 0 6
-2.9203033 5.8330302 -1.5597082 0 6
-2.9891708 5.7915821 -1.558336 0 6
-3.0569863 5.7484322 -1.5567223 0 6
-3.1273243 5.7102075 -1.556667 0 6
-3.2055745 5.6860042 -1.5606966 0 6
-3.2731249 5.6425056 -1.5596864 0 6
-3.33868 5.5958424 -1.5580181 0 6
-3.4092357 5.5576353 -1.5589345 0 6
-3.4786608 5.517436 -1.5595391 0 6
-3.5542326 5.4865885 -1.563055 0 6
-3.6143677 5.4318671 -1.5600092 0 6
-3.6864789 5.3952069 -1.5623811 0 6
-3.7586269 5.3581529 -1.5649167 0 6
-3.8241668 5.3114538 -1.5648932 0 6
-3.8894827 5.2644353 -1.5650131 0 6
-3.9445872 5.2039046 -1.5613198 0 6
-4.0183916 5.1680231 -1.565261 0 6
-4.0766897 5.1120272 -1.5633659 0 6
-4.1568727 5.0830812 -1.5700269 0 6
-4.1975875 5.0059805 -1.5620372 0 6
-4.2633066 4.959208 -1.5636823 0 6
-4.3318357 4.9153495 -1.5665302 0 6
-4.3794994 4.847939 -1.562091 0 6
-4.4432096 4.798512 -1.5636512 0 6
-4.5251794 4.7680736 -1.5717459 0 6
-4.5624366 4.6904569 -1.5645355 0 6
-4.6362624 4.6505547 -1.5701231 0 6
-4.6658177 4.5665026 -1.5609977 0 6
-4.741261 4.5275517 -1.5674937 0 6
-4.7770734 4.450747 -1.5611219 0 6
-4.8546886 4.4128094 -1.568635 0 6
-4.8981285 4.3435173 -1.5652951 0 6
-4.9744673 4.303122 -1.5726624 0 6
-5.0145388 4.2311182 -1.5687639 0 6
-5.0363355 4.1445789 -1.5595213 0 6
-5.1234326 4.1116476 -1.5707169 0 6
-5.1612616 4.0386858 -1.5669707 0 6
-5.1966472 3.9643302 -1.5627959 0 6
-5.2507548 3.9044156 -1.5645112 0 6
-5.3134127 3.8504646 -1.5689547 0 6
-5.3734717 3.7941039 -1.572794 0 6
-5.3944302 3.7103555 -1.565456 0 6
-5.4423532 3.6455626 -1.566236 0 6
-5.4872174 3.578665 -1.5663649 0 6
-5.5336576 3.5127373 -1.5671729 0 6
-5.5697913 3.4403317 -1.5653071 0 6
-5.6215367 3.3775156 -1.5680591 0 6
-5.6500206 3.3007679 -1.5645645 0 6
-5.7036738 3.2387116 -1.5682752 0 6
-5.7522626 3.1734116 -1.5707871 0 6
-5.7922783 3.1032114 -1.5711753 0 6
-5.814188 3.0235372 -1.5669152 0 6
-5.8530135 2.9528737 -1.5674745 0 6
-5.9044714 2.8883123 -1.571625 0 6
-5.916141 2.8044043 -1.565434 0 6
-5.9675102 2.7394078 -1.5699946 0 6
-5.977201 2.655369 -1.5638356 0 6
-6.0289521 2.5900757 -1.5689241 0 6
-6.0398884 2.5072598 -1.5636288 0 6
-6.0993376 2.4444602 -1.571119 0 6
-6.1184731 2.3652375 -1.5684377 0 6
-6.126966 2.2823315 -1.5633024 0 6
-6.140646 2.2018335 -1.5597668 0 6
-6.1942682 2.1354775 -1.5665988 0 6
-6.2289162 2.0620871 -1.5688301 0 6
-6.2774005 1.9928356 -1.5747507 0 6
-6.2589302 1.9025823 -1.5641301 0 6
-6.267632 1.8213497 -1.5605899 0 6
-6.3074417 1.7491089 -1.5650285 0 6
-6.3573217 1.6790431 -1.5721632 0 6
-6.351706 1.5942786 -1.5658081 0 6
-6.3863626 1.519757 -1.569626 0 6
-6.3918858 1.4382652 -1.5665183 0 6
-6.4153805 1.3608998 -1.5680566 0 6
-6.4505959 1.2856969 -1.572681 0 6
-6.4685574 1.2067788 -1.5733232 0 6
-6.4696298 1.1248448 -1.5701011 0 6
-6.4581881 1.0412165 -1.564099 0 6
-6.4744439 0.96231669 -1.5650518 0 6
-6.510654 0.88602132 -1.5710523 0 6
-6.4965672 0.80287594 -1.5651525 0 6
-6.5079746 0.72316158 -1.5656401 0 6
-6.5142899 0.64288217 -1.5651393 0 6
-6.5268846 0.56318402 -1.5663831 0 6
-6.5372491 0.48318061 -1.5673261 0 6
-6.5437036 0.40282708 -1.5675675 0 6
-6.5517411 0.32251444 -1.5684242 0 6
-6.5483384 0.24167921 -1.5667799 0 6
-6.5661507 0.16152282 -1.5704478 0 6
-6.5705218 0.080811672 -1.5711367 0 6
-6.5658002 1.7422941e-05 -1.5698891 0 6
-6.8494277 -1.8175571e-05 -1.571205 0 7
-1.6680423 -0.020515461 -0.38266477 0 7
-1.6674261 -0.041017544 -0.38261017 0 7
-1.6767634 -0.061884224 -0.38489825 0 7
-1.6704755 -0.082230426 -0.38365793 0 7
-1.6891644 -0.10398411 -0.38821456 0 7
-1.6756809 -0.12385278 -0.38543656 0 7
-1.6657817 -0.14373499 -0.38353714 0 7
-1.6806995 -0.16586486 -0.38741216 0 7
-1.6693045 -0.18549195 -0.38528219 0 7
-1.6765004 -0.20718971 -0.38750178 0 7
-1.6709812 -0.22740033 -0.38684312 0 7
-1.654976 -0.24598423 -0.38380903 0 7
-1.6596459 -0.26757517 -0.38562596 0 7
-1.6711882 -0.29056183 -0.38910863 0 7
-1.6714703 -0.3118307 -0.39003757 0 7
-1.6573713 -0.33033803 -0.38766614 0 7
-1.66652 -0.35352024 -0.39079332 0 7
-1.6506296 -0.37141514 -0.3881087 0 7
-1.6685325 -0.3970592 -0.3934364 0 7
-1.6633452 -0.41749975 -0.39339405 0 7
-1.6671708 -0.44031927 -0.39554945 0 7
-1.6829394 -0.46669385 -0.40062198 0 7
-1.6510071 -0.47977626 -0.39439505 0 7
-1.6451766 -0.50009888 -0.39444146 0 7
-1.6595449 -0.5268423 -0.39940935 0 7
-1.6643113 -0.55097145 -0.40215665 0 7
-1.6418288 -0.56602144 -0.39837578 0 7
-1.6430972 -0.58916056 -0.4004111 0 7
-1.6517183 -0.61527491 -0.40432513 0 7
-1.6520951 -0.6386556 -0.40630907 0 7
-1.6473212 -0.66020465 -0.40710077 0 7
-1.6389194 -0.68034309 -0.40706107 0 7
-1.6441867 -0.70635301 -0.41049561 0 7
-1.6002049 -0.71089035 -0.40166694 0 7
-1.5585113 -0.71544039 -0.39337993 0 7
-1.5140676 -0.71770734 -0.38436052 0 7
-1.4802523 -0.72410059 -0.37800795 0 7
-1.4476856 -0.73036444 -0.3719568 0 7
-1.4365984 -0.74707055 -0.37144032 0 7
-1.4309088 -0.76660901 -0.37237841 0 7
-1.4218302 -0.78439605 -0.37249771 0 7
-1.4326385 -0.81349373 -0.3779214 0 7
-1.3953481 -0.8151688 -0.3707006 0 7
-1.3516878 -0.81211716 -0.36172706 0 7
-1.3122584 -0.81055176 -0.35381582 0 7
-1.2774525 -0.81092018 -0.34709361 0 7
-1.2305489 -0.80254185 -0.33700541 0 7
-1.1873574 -0.79535186 -0.32783037 0 7
-1.1557248 -0.7949217 -0.32177109 0 7
-1.1393957 -0.80450517 -0.31995487 0 7
-1.1219805 -0.81306428 -0.31784794 0 7
-1.1088041 -0.8244971 -0.31696334 0 7
-1.0975029 -0.83724445 -0.31665182 0 7
-1.0989251 -0.8599087 -0.32008871 0 7
-1.081959 -0.86829162 -0.31823277 0 7
-1.0825738 -0.89088827 -0.32161137 0 7
-1.067819 -0.90099382 -0.32049516 0 7
-1.0580918 -0.91529357 -0.32092941 0 7
-1.0511214 -0.93210369 -0.32226726 0 7
-1.0490664 -0.95357925 -0.32520768 0 7
-1.0327111 -0.96216571 -0.32378075 0 7
-1.0160896 -0.97028995 -0.3222858 0 7
-1.0159569 -0.9943316 -0.32609719 0 7
-1.0091552 -1.012266 -0.3278845 0 7
-0.99526781 -1.0231947 -0.32743552 0 7
-0.97920316 -1.031763 -0.32629964 0 7
-0.97099054 -1.048636 -0.32783502 0 7
-0.96900123 -1.0726475 -0.33159155 0 7
-0.95642877 -1.0852631 -0.3318308 0 7
-0.94009227 -1.093544 -0.33080319 0 7
-0.9325484 -1.1121434 -0.33293563 0 7
-0.92532635 -1.1315018 -0.33529922 0 7
-0.91633004 -1.1490461 -0.33713371 0 7
-0.89397544 -1.149735 -0.33408529 0 7
-0.87820113 -1.1585686 -0.33348906 0 7
-0.87767041 -1.1879315 -0.33880889 0 7
-0.85298675 -1.1847286 -0.33487862 0 7
-0.85577345 -1.2199575 -0.34183621 0 7
-0.83387756 -1.22039 -0.33905864 0 7
-0.81886208 -1.2306303 -0.33908054 0 7
-0.81294256 -1.2549211 -0.34299326 0 7
-0.79937106 -1.2678668 -0.34381899 0 7
-0.78613061 -1.2815269 -0.34487587 0 7
-0.7699759 -1.2905291 -0.34472445 0 7
-0.76169235 -1.3130735 -0.34821829 0 7
-0.74745148 -1.3258193 -0.34913456 0 7
-0.74055463 -1.3521848 -0.35365283 0 7
-0.71937704 -1.3527342 -0.3514564 0 7
-0.70670599 -1.3692579 -0.35346499 0 7
-0.69493806 -1.3880731 -0.35608917 0 7
-0.67723775 -1.3953165 -0.35578412 0 7
-0.66317624 -1.4102275 -0.35747987 0 7
-0.64913011 -1.4256181 -0.35933068 0 7
-0.62317461 -1.414476 -0.35456407 0 7
-0.6133973 -1.4400178 -0.35904872 0 7
-0.59542 -1.4469039 -0.35891303 0 7
-0.58044606 -1.4613197 -0.36069119 0 7
-0.56896627 -1.4853987 -0.36488006 0 7
-0.54653907 -1.4811159 -0.36214978 0 7
-0.53749514 -1.5136563 -0.36846238 0 7
-0.52446234 -1.5366137 -0.3724528 0 7
-0.50215566 -1.5326498 -0.36996734 0 7
-0.48390523 -1.5407212 -0.37045136 0 7
-0.46892685 -1.5598677 -0.3736403 0 7
-0.44636697 -1.553871 -0.37086111 0 7
-0.43361259 -1.5825453 -0.37640375 0 7
-0.41316116 -1.584075 -0.37553084 0 7
-0.39525884 -1.5955181 -0.37706289 0 7
-0.37627846 -1.6031001 -0.37773269 0 7
-0.36205652 -1.6324835 -0.38357818 0 7
-0.33882582 -1.6218245 -0.38006601 0 7
-0.32210624 -1.6424257 -0.38393658 0 7
-0.29917848 -1.6314899 -0.38049147 0 7
-0.28606379 -1.675866 -0.3899909 0 7
-0.26640812 -1.6854036 -0.39141846 0 7
-0.2596328 -1.7845576 -0.41367331 0 7
-0.23484474 -1.7663573 -0.40875402 0 7
-0.21194983 -1.7594912 -0.4065313 0 7
-0.19146818 -1.7727811 -0.40902704 0 7
-0.16867356 -1.7647184 -0.40665746 0 7
-0.14656831 -1.7619187 -0.40556633 0 7
-0.12512276 -1.7668251 -0.40631086 0 7
-0.10351004 -1.7702962 -0.40678564 0 7
-0.081304297 -1.7620906 -0.40463978 0 7
-0.059777293 -1.7672436 -0.40562367 0 7
-0.038182162 -1.7742859 -0.40710148 0 7
-0.016327223 -1.7706903 -0.40619972 0 7
0.0054716305 -1.7792188 -0.40814075 0 7
0.026980957 -1.7551613 -0.40266779 0 7
0.049074642 -1.7733089 -0.40693885 0 7
0.070688352 -1.7679102 -0.40586877 0 7
0.091974244 -1.7583773 -0.40390936 0 7
0.11411855 -1.7653286 -0.40579778 0 7
0.13722345 -1.7820754 -0.41000423 0 7
0.15799363 -1.7675996 -0.40708998 0 7
0.18012276 -1.7695266 -0.40801302 0 7
0.20201045 -1.7684389 -0.40830413 0 7
0.22395404 -1.7675177 -0.40869635 0 7
0.24643353 -1.7701169 -0.40996706 0 7
0.2659516 -1.7522745 -0.40656134 0 7
0.28790766 -1.7514941 -0.40717089 0 7
0.31439787 -1.7759318 -0.41371939 0 7
0.33299986 -1.7550126 -0.409769 0 7
0.35732624 -1.7644774 -0.41297355 0 7
0.38472104 -1.7865433 -0.41921356 0 7
0.40218723 -1.7620882 -0.41460431 0 7
0.42921889 -1.7793806 -0.41988316 0 7
0.44946483 -1.7676759 -0.4183937 0 7
0.4740622 -1.772849 -0.42096606 0 7
0.49875322 -1.7773226 -0.42345262 0 7
0.52106488 -1.7727442 -0.42385626 0 7
0.54800993 -1.7830824 -0.42790693 0 7
0.33898777 -1.0565385 -0.25453085 0 7
0.34567249 -1.0335131 -0.24998891 0 7
0.61712611 -1.7723728 -0.43050924 0 7
0.63610095 -1.7569975 -0.42864209 0 7
0.65984559 -1.7548664 -0.43006912 0 7
0.68563586 -1.7575487 -0.43275994 0 7
0.72014928 -1.7810255 -0.44068775 0 7
0.7440936 -1.7770518 -0.44193506 0 7
0.76980263 -1.7768059 -0.44419438 0 7
0.78941536 -1.7623488 -0.44297341 0 7
0.81218958 -1.7550263 -0.44360963 0 7
0.84048927 -1.759102 -0.44721833 0 7
0.87507015 -1.7750356 -0.45397043 0 7
0.89532155 -1.7611766 -0.45320734 0 7
0.91843313 -1.7529449 -0.45396096 0 7
0.95814872 -1.7753003 -0.46276647 0 7
0.99387157 -1.7885194 -0.46936247 0 7
1.0098928 -1.7658571 -0.46663883 0 7
1.0404792 -1.7685198 -0.47068781 0 7
1.0701643 -1.7688472 -0.47424141 0 7
1.1023737 -1.7725047 -0.47882009 0 7
0.96799207 -1.5145842 -0.41233033 0 7
0.9775393 -1.4888567 -0.40856779 0 7
0.96944016 -1.4376752 -0.39776388 0 7
0.96538353 -1.3943614 -0.38903511 0 7
0.96566683 -1.3587639 -0.38238728 0 7
0.97164404 -1.3321772 -0.37823895 0 7
0.97060668 -1.2969543 -0.37159884 0 7
0.96826696 -1.261199 -0.36473814 0 7
0.9751485 -1.2383376 -0.36156705 0 7
0.96882385 -1.1996598 -0.35372561 0 7
0.97847098 -1.1815828 -0.35191652 0 7
0.97255504 -1.1454707 -0.34469682 0 7
0.96512848 -1.1087977 -0.33720687 0 7
0.97799164 -1.0960658 -0.33696666 0 7
0.97043896 -1.0610459 -0.32984406 0 7
0.96736115 -1.031912 -0.3244606 0 7
0.97470838 -1.0144573 -0.32271653 0 7
0.96763074 -0.9826172 -0.31634882 0 7
0.97600704 -0.96704638 -0.31517583 0 7
0.96965015 -0.93740368 -0.3093774 0 7
0.96429402 -0.90955585 -0.304077 0 7
0.97123557 -0.89379394 -0.30277732 0 7
0.98115873 -0.88089293 -0.30247116 0 7
1.0006701 -0.87642992 -0.3051407 0 7
1.0281867 -0.87842661 -0.31021428 0 7
1.0717841 -0.8931123 -0.32003048 0 7
1.1022662 -0.89578021 -0.32581866 0 7
1.1394869 -0.90299308 -0.33351338 0 7
1.1741797 -0.90720713 -0.34037673 0 7
1.2129865 -0.91359526 -0.34834334 0 7
1.2526478 -0.9195478 -0.35645905 0 7
1.2778914 -0.91411376 -0.36041665 0 7
1.353083 -0.94296807 -0.37832478 0 7
1.4038199 -0.95289892 -0.38920534 0 7
1.456725 -0.96286106 -0.40056029 0 7
1.5152249 -0.97497195 -0.41331837 0 7
1.5694214 -0.98277056 -0.42477342 0 7
1.6442591 -1.0017021 -0.44166151 0 7
1.7126603 -1.0147119 -0.45664859 0 7
1.8810685 -1.0834658 -0.49796152 0 7
1.422007 -0.79593074 -0.3738184 0 7
1.4310627 -0.77804744 -0.37365568 0 7
1.4280659 -0.75381839 -0.37042496 0 7
1.4532981 -0.74443501 -0.37456718 0 7
1.4588978 -0.7247988 -0.37368512 0 7
1.5006473 -0.72267294 -0.38207385 0 7
1.5664124 -0.73075515 -0.39650026 0 7
1.5921584 -0.71906316 -0.40074882 0 7
1.6481743 -0.72009575 -0.41258818 0 7
0.7060867 -0.29820842 -0.17582376 0 7
0.70562679 -0.2878426 -0.17481466 0 7
0.70784241 -0.27864477 -0.17450151 0 7
0.71289253 -0.27055708 -0.17491312 0 7
0.71677369 -0.26199359 -0.17506172 0 7
0.71801549 -0.25248364 -0.17459354 0 7
0.72173482 -0.24386224 -0.17475556 0 7
0.7445007 -0.24139678 -0.17953563 0 7
0.71943861 -0.22353289 -0.17281602 0 7
0.72820121 -0.2164741 -0.17426831 0 7
0.73239195 -0.20795389 -0.17464605 0 7
0.73941749 -0.20015766 -0.17572118 0 7
0.75558609 -0.19459566 -0.17898142 0 7
0.72521621 -0.17729506 -0.17125812 0 7
0.74740708 -0.17300953 -0.17598274 0 7
0.74273694 -0.16233338 -0.17439994 0 7
0.76340902 -0.15704221 -0.17878695 0 7
0.75564378 -0.14578429 -0.17653519 0 7
0.74786878 -0.13476841 -0.17431845 0 7
0.74817085 -0.12534525 -0.17401645 0 7
0.76494014 -0.1185045 -0.17756446 0 7
0.75769109 -0.10785908 -0.17556059 0 7
0.74686062 -0.09696386 -0.1727618 0 7
0.75185508 -0.088226274 -0.17365304 0 7
0.75276291 -0.078962535 -0.17362532 0 7
0.76116407 -0.070393369 -0.17535016 0 7
0.86725599 -0.069461696 -0.19957881 0 7
1.0134298 -0.068640068 -0.23300543 0 7
1.4035882 -0.077741757 -0.3224656 0 7
1.6146107 -0.069528475 -0.37072226 0 7
6.7483878 -0.2075083 -1.5487589 0 7
6.7561951 -0.12462389 -1.5500817 0 7
6.7635307 -0.041582208 -1.5515302 0 7
6.7544365 0.041526295 -1.549444 0 7
6.7562914 0.12462566 -1.5501039 0 7
6.7505674 0.20757532 -1.5492591 0 7
6.7510176 0.29071277 -1.5500656 0 7
6.741972 0.37342346 -1.548926 0 7
6.7448139 0.4568294 -1.550752 0 7
6.7469687 0.5403893 -1.552658 0 7
6.7490234 0.62415773 -1.5547794 0 7
6.6837511 0.70110512 -1.5416121 0 7
6.688736 0.78488827 -1.5448712 0 7
6.6869636 0.868159 -1.5468105 0 7
6.6927128 0.95272315 -1.5507331 0 7
6.7080956 1.0392179 -1.5571406 0 7
6.6479526 1.1137686 -1.5462418 0 7
6.6496406 1.1982871 -1.5499444 0 7
6.6455464 1.2821071 -1.5525475 0 7
6.5956149 1.3567954 -1.5446632 0 7
6.6010714 1.4427373 -1.5499787 0 7
6.6077433 1.5295582 -1.5558441 0 7
6.5350013 1.5976248 -1.5432253 0 7
6.5555491 1.6883336 -1.5528628 0 7
6.5315566 1.7680689 -1.5522121 0 7
6.5073915 1.8476956 -1.5517514 0 7
6.4960947 1.9311094 -1.5546025 0 7
6.4605846 2.0073333 -1.5518941 0 7
6.4600735 2.0946133 -1.5578405 0 7
6.3987122 2.162019 -1.5493371 0 7
6.3673429 2.2390182 -1.548291 0 7
6.3527985 2.3220613 -1.55158 0 7
6.3104038 2.3949254 -1.5483012 0 7
6.2758636 2.4705167 -1.5471631 0 7
6.2777848 2.5608637 -1.5552822 0 7
6.2257395 2.6293769 -1.5502812 0 7
6.1775861 2.699019 -1.5464377 0 7
6.179173 2.7906868 -1.5553077 0 7
6.1550698 2.8714333 -1.5580103 0 7
6.1030102 2.9390519 -1.5538632 0 7
6.0615244 3.0114415 -1.5526114 0 7
6.0085721 3.077821 -1.548625 0 7
5.9704309 3.1515493 -1.5486655 0 7
5.9431047 3.2311773 -1.5517663 0 7
5.9014912 3.3032033 -1.551389 0 7
5.8637104 3.3774049 -1.5522573 0 7
5.8198318 3.4481165 -1.5517485 0 7
5.7737899 3.5174611 -1.5508875 0 7
5.7494969 3.6003306 -1.5561361 0 7
5.7015281 3.6686502 -1.5552453 0 7
5.6317124 3.7224298 -1.5485698 0 7
5.5805659 3.7880325 -1.547197 0 7
5.5551391 3.8713951 -1.5532284 0 7
5.4847913 3.9234347 -1.5469313 0 7
5.4527216 4.0027518 -1.5516509 0 7
5.3930297 4.0619135 -1.5487608 0 7
5.3520288 4.1351409 -1.5514712 0 7
5.287097 4.1897907 -1.5474663 0 7
5.2772474 4.2886677 -1.5599005 0 7
5.1929135 4.3272285 -1.5505834 0 7
5.142767 4.3936996 -1.5516247 0 7
5.0783496 4.4478374 -1.5485736 0 7
5.0506597 4.5345263 -1.5570149 0 7
5.005815 4.6066756 -1.5605352 0 7
4.9349685 4.6548347 -1.5561751 0 7
4.8634052 4.7016687 -1.5517222 0 7
4.8042283 4.7601213 -1.5513994 0 7
4.7496781 4.8232403 -1.5528185 0 7
4.6997557 4.8914132 -1.5560436 0 7
4.6274681 4.9362535 -1.5520895 0 7
4.5724292 4.9993429 -1.5541303 0 7
4.5130372 5.0579014 -1.5549653 0 7
4.4422717 5.1035485 -1.5520881 0 7
4.3813477 5.1603308 -1.5528548 0 7
4.3192406 5.2158318 -1.5534564 0 7
4.2581811 5.2727528 -1.5546972 0 7
4.1862078 5.3160501 -1.5521685 0 7
4.128355 5.3773155 -1.555117 0 7
4.0576015 5.4218907 -1.5534613 0 7
3.9950984 5.4774985 -1.5552009 0 7
3.9214816 5.5178118 -1.5528386 0 7
3.8625858 5.5789647 -1.5565642 0 7
3.7898898 5.6203885 -1.5550019 0 7
3.7110956 5.6522427 -1.5510722 0 7
3.6457627 5.7044005 -1.5529658 0 7
3.5706124 5.7411809 -1.5509087 0 7
3.5093539 5.8005209 -1.5551639 0 7
3.4401326 5.8472509 -1.5562335 0 7
3.3705168 5.8935471 -1.5574069 0 7
3.2981079 5.9351025 -1.5575533 0 7
3.237407 5.9984107 -1.5636021 0 7
3.1445529 6.0017743 -1.5542822 0 7
3.0727744 6.0444193 -1.5554234 0 7
2.9992583 6.0838442 -1.5559605 0 7
2.9253604 6.122633 -1.5565634 0 7
2.8529997 6.1649275 -1.5582793 0 7
2.765254 6.1733565 -1.5516977 0 7
2.6988809 6.2293725 -1.5573182 0 7
2.6296301 6.2801089 -1.5618005 0 7
2.5412269 6.2847943 -1.555077 0 7
2.4642072 6.3167119 -1.5553594 0 7
2.3825154 6.3363256 -1.5528578 0 7
2.3047988 6.3661685 -1.5531085 0 7
2.2322102 6.4108586 -1.5571971 0 7
2.1559625 6.4460306 -1.559183 0 7
2.0736933 6.4631734 -1.557044 0 7
1.9958735 6.4940553 -1.5584536 0 7
1.9174355 6.5234151 -1.5597234 0 7
1.830886 6.5244193 -1.554463 0 7
1.7582768 6.5754228 -1.5613455 0 7
1.6746011 6.5859475 -1.5588373 0 7
1.5932707 6.6051025 -1.5586162 0 7
1.5124915 6.6266232 -1.5591878 0 7
1.430903 6.6447368 -1.5591919 0 7
1.3511124 6.6717939 -1.5615244 0 7
1.2691859 6.6890039 -1.5617816 0 7
1.1811937 6.6721811 -1.554345 0 7
1.1009724 6.6977954 -1.5570406 0 7
1.0230001 6.7402387 -1.5638648 0 7
0.93450671 6.7125049 -1.5546464 0 7
0.85632759 6.7584147 -1.5627223 0 7
0.76982975 6.7392397 -1.5559821 0 7
0.68861145 6.7649207 -1.5598385 0 7
0.60415965 6.7592115 -1.5566915 0 7
0.52375001 6.8017669 -1.5648909 0 7
0.43877929 6.7875872 -1.5602691 0 7
0.35513669 6.789556 -1.5596 0 7
0.27104262 6.7787547 -1.5562357 0 7
0.1887469 6.8203559 -1.5651351 0 7
0.1046709 6.8090367 -1.562124 0 7
0.020939043 6.8087821 -1.5618886 0 7
-0.062790908 6.8096857 -1.5621549 0 7
-0.14649002 6.8072414 -1.5618893 0 7
-0.23040681 6.8116999 -1.5634441 0 7
-0.31419137 6.809402 -1.5636852 0 7
-0.39813462 6.8091578 -1.564635 0 7
-0.48216167 6.8084764 -1.5657226 0 7
-0.56325918 6.7710195 -1.5585836 0 7
-0.64689547 6.768034 -1.5596094 0 7
-0.73219383 6.7792954 -1.5641611 0 7
-0.81559539 6.7706256 -1.5643563 0 7
-0.90090328 6.7760386 -1.568048 0 7
-0.98064822 6.7403784 -1.5624683 0 7
-1.0655079 6.7408261 -1.5654908 0 7
-1.1499733 6.7369628 -1.567759 0 7
-1.226292 6.6872554 -1.5595828 0 7
-1.3125889 6.6929154 -1.5645487 0 7
-1.3901829 6.654253 -1.559389 0 7
-1.4756441 6.6535592 -1.5633606 0 7
-1.5529118 6.6160393 -1.5589135 0 7
-1.6401995 6.6208968 -1.5646921 0 7
-1.713686 6.5703349 -1.5576051 0 7
-1.8026655 6.5791445 -1.5648302 0 7
-1.881595 6.5501175 -1.5633111 0 7
-1.9662225 6.5405664 -1.5666837 0 7
-2.0424302 6.5029588 -1.5635729 0 7
-2.1182542 6.4652095 -1.5606412 0 7
-2.2099097 6.4747791 -1.5693922 0 7
-2.2861488 6.4380927 -1.5671953 0 7
-2.3564982 6.3860884 -1.5614717 0 7
-2.447835 6.3905559 -1.5698051 0 7
-2.5243366 6.3552208 -1.5686315 0 7
-2.5926726 6.3003392 -1.5628362 0 7
-2.6731985 6.2756281 -1.564742 0 7
-2.7378752 6.2144046 -1.5577532 0 7
-2.8425729 6.2428522 -1.5735269 0 7
-2.9085922 6.1850476 -1.5678533 0 7
-2.9846044 6.1491957 -1.5679499 0 7
-3.0576727 6.1074123 -1.5667642 0 7
-3.1353371 6.0747828 -1.5681654 0 7
-3.2030866 6.0231624 -1.5648891 0 7
-3.2696896 5.9701533 -1.5614445 0 7
-3.3501256 5.9424071 -1.5648437 0 7
-3.4159145 5.8886595 -1.561633 0 7
-3.4908323 5.8508596 -1.562874 0 7
-3.5620205 5.8067012 -1.5626601 0 7
-3.6431239 5.7782879 -1.5669509 0 7
-3.7088931 5.7253346 -1.5648402 0 7
-3.7851496 5.6885276 -1.5673831 0 7
-3.8628697 5.653357 -1.5706614 0 7
-3.9286129 5.6004786 -1.569273 0 7
-4.0121236 5.5725102 -1.575141 0 7
-4.0482697 5.4793544 -1.5627619 0 7
-4.1161008 5.4301744 -1.5630525 0 7
-4.1930337 5.3926287 -1.566968 0 7
-4.2693982 5.3536768 -1.5707855 0 7
-4.3146224 5.27598 -1.5634372 0 7
-4.391449 5.2371774 -1.567822 0 7
-4.457346 5.1849208 -1.5684676 0 7
-4.528224 5.1381922 -1.5710571 0 7
-4.5776792 5.0673161 -1.5664786 0 7
-4.6477246 5.0193806 -1.5692087 0 7
-4.6801324 4.931344 -1.5595595 0 7
-4.7643113 4.8979964 -1.5674222 0 7
-4.8295341 4.8444219 -1.5691633 0 7
-4.8693857 4.765738 -1.5629532 0 7
-4.9531894 4.7299275 -1.5710649 0 7
-4.9993434 4.6578336 -1.5674191 0 7
-5.0873704 4.6243124 -1.5770707 0 7
-5.115869 4.5366035 -1.5684936 0 7
-5.1848602 4.4851208 -1.572618 0 7
-5.2295766 4.4125605 -1.569605 0 7
-5.2772355 4.342824 -1.567763 0 7
-5.353086 4.295948 -1.5744842 0 7
-5.3898911 4.2175884 -1.5699371 0 7
-5.4295988 4.1420403 -1.5665493 0 7
-5.493793 4.0851369 -1.5704587 0 7
-5.5352283 4.0112071 -1.5680852 0 7
-5.5891705 3.9464045 -1.5695006 0 7
-5.6336627 3.8749025 -1.568496 0 7
-5.6719379 3.79935 -1.5660267 0 7
-5.7072778 3.7221844 -1.5630291 0 7
-5.7853427 3.6725059 -1.5719219 0 7
-5.8441586 3.609802 -1.5757231 0 7
-5.8733754 3.5288246 -1.5717822 0 7
-5.9286404 3.4635389 -1.5750552 0 7
-5.9332867 3.3690925 -1.5651652 0 7
-5.9786668 3.2983141 -1.5663189 0 7
-6.0239034 3.2273047 -1.5676551 0 7
-6.065649 3.1543038 -1.5683066 0 7
-6.1104751 3.0827644 -1.5699768 0 7
-6.1679387 3.0171936 -1.5750895 0 7
-6.1725512 2.9259496 -1.5669612 0 7
-6.2223277 2.8563826 -1.5705622 0 7
-6.2415571 2.772809 -1.5666914 0 7
-6.2951832 2.7044504 -1.5716859 0 7
-6.2864513 2.6096122 -1.5613763 0 7
-6.3659253 2.5513017 -1.5732045 0 7
-6.3788991 2.4659111 -1.5687987 0 7
-6.4450936 2.400836 -1.5776985 0 7
-6.4538336 2.3141322 -1.5727533 0 7
-6.4720612 2.2312467 -1.5703906 0 7
-6.491653 2.1490664 -1.5686138 0 7
-6.5018759 2.0640979 -1.5648326 0 7
-6.5483994 1.9905747 -1.57002 0 7
-6.5700283 1.9092249 -1.5694582 0 7
-6.5974922 1.8295425 -1.5705261 0 7
-6.6387734 1.7533777 -1.5751016 0 7
-6.6322083 1.6646848 -1.5685687 0 7
-6.6664262 1.5864036 -1.5719291 0 7
-6.6825318 1.5036646 -1.5712481 0 7
-6.7049575 1.4223281 -1.5722899 0 7
-6.7038665 1.3361773 -1.5680627 0 7
-6.7033229 1.2505767 -1.5642203 0 7
-6.7353573 1.1710457 -1.5682169 0 7
-6.7497816 1.0882285 -1.568341 0 7
-6.7675014 1.0058748 -1.5694658 0 7
-6.7915387 0.92424631 -1.5722858 0 7
-6.8091521 0.8415066 -1.573849 0 7
-6.8097677 0.75669664 -1.5717217 0 7
-6.8043699 0.67150962 -1.5684515 0 7
-6.8195953 0.58844113 -1.5701745 0 7
-6.830173 0.50483114 -1.5710618 0 7
-6.8184028 0.41973743 -1.5670489 0 7
-6.8270473 0.3360666 -1.5679673 0 7
-6.8541203 0.25296468 -1.5733519 0 7
-6.8388314 0.16823058 -1.5692488 0 7
-6.854495 0.084304295 -1.5724863 0 7
-6.8682857 1.8225614e-05 -1.5755309 0 7
-7.1665821 -1.901717e-05 -1.574672 0 8
-1.7205857 -0.0211617 -0.37808302 0 8
-1.7093624 -0.042049147 -0.37570202 0 8
-1.712642 -0.063208394 -0.37656522 0 8
-1.710291 -0.084190376 -0.37624747 0 8
-1.7029037 -0.10482989 -0.37487757 0 8
-1.7072365 -0.12618512 -0.37614453 0 8
-1.7105502 -0.14759791 -0.37724596 0 8
-1.7146022 -0.16921064 -0.37856987 0 8
-1.7073418 -0.18971863 -0.37745336 0 8
-1.7009727 -0.21021409 -0.37658828 0 8
-1.7014817 -0.2315511 -0.37730283 0 8
-1.7001535 -0.25269908 -0.37766877 0 8
-1.6949818 -0.27327216 -0.37723792 0 8
-1.7068378 -0.29676005 -0.38065997 0 8
-1.7021744 -0.31755888 -0.38046202 0 8
-1.7039212 -0.33961609 -0.38175702 0 8
-1.6906992 -0.3586494 -0.37975404 0 8
-1.6927179 -0.3808856 -0.38123065 0 8
-1.6852425 -0.40103567 -0.38062888 0 8
-1.6826776 -0.42235219 -0.38119376 0 8
-1.6746182 -0.44228625 -0.38057128 0 8
-1.6759998 -0.46476942 -0.38215512 0 8
-1.68641 -0.49006423 -0.38587371 0 8
-1.6841546 -0.51194733 -0.38676882 0 8
-1.6662266 -0.52896351 -0.38411632 0 8
-1.6801801 -0.55622482 -0.38888037 0 8
-1.671844 -0.57636923 -0.38856196 0 8
-1.6603525 -0.59534776 -0.38756332 0 8
-1.6672555 -0.62106264 -0.39092767 0 8
-1.6581028 -0.64097804 -0.39060014 0 8
-1.6704417 -0.66947079 -0.3954162 0 8
-1.6568168 -0.68777269 -0.39416313 0 8
-1.6446325 -0.70654446 -0.39330161 0 8
-1.6054918 -0.71323901 -0.38600954 0 8
-1.5519826 -0.71244341 -0.37522227 0 8
-1.5086625 -0.71514517 -0.3668471 0 8
-1.5190476 -0.74307823 -0.37156609 0 8
-1.514986 -0.76431781 -0.3728433 0 8
-1.5061295 -0.78322858 -0.37300569 0 8
-1.5210862 -0.8149215 -0.37916288 0 8
-1.4739689 -0.81316 -0.36988238 0 8
-1.4344227 -0.81450683 -0.36244449 0 8
-1.3944902 -0.81466764 -0.35485888 0 8
-1.3563612 -0.81492501 -0.34767979 0 8
-1.31953 -0.81504327 -0.34078199 0 8
-1.2496321 -0.79325998 -0.3252247 0 8
-1.2372963 -0.80694246 -0.32457212 0 8
-1.1806159 -0.79083604 -0.31223086 0 8
-1.1849548 -0.8150264 -0.31600487 0 8
-1.1591331 -0.81844133 -0.31177905 0 8
-1.1596471 -0.84036005 -0.31467295 0 8
-1.1544585 -0.85844535 -0.31610548 0 8
-1.1351781 -0.86598539 -0.31371823 0 8
-1.1301745 -0.88436139 -0.31531692 0 8
-1.1211716 -0.89976048 -0.31586805 0 8
-1.1207306 -0.92228889 -0.31891477 0 8
-1.0994151 -0.92765361 -0.31607124 0 8
-1.1066197 -0.95727229 -0.3215023 0 8
-1.0882429 -0.96502197 -0.31958663 0 8
-1.0851864 -0.98641157 -0.32222676 0 8
-1.0690767 -0.99604702 -0.32105577 0 8
-1.0759674 -1.0274689 -0.32689467 0 8
-1.0496446 -1.0273023 -0.32271084 0 8
-1.0512329 -1.0544736 -0.32716089 0 8
-1.0453528 -1.0746851 -0.32941869 0 8
-1.0212456 -1.0760622 -0.32596689 0 8
-1.0125382 -1.093506 -0.32745472 0 8
-1.0002885 -1.1072811 -0.32787165 0 8
-0.98845339 -1.1216017 -0.32848817 0 8
-0.98208898 -1.1423959 -0.33101642 0 8
-0.96413541 -1.1498137 -0.32970566 0 8
-0.94691765 -1.1579039 -0.32866186 0 8
-0.94602042 -1.1862767 -0.33338821 0 8
-0.93202972 -1.1986763 -0.33362687 0 8
-0.91938722 -1.2129035 -0.33441481 0 8
-0.90329492 -1.2226144 -0.33400458 0 8
-0.89700943 -1.2458725 -0.33731964 0 8
-0.88008374 -1.2546133 -0.33673072 0 8
-0.87393457 -1.2790139 -0.3403697 0 8
-0.85314274 -1.2821491 -0.33838668 0 8
-0.83742344 -1.2927117 -0.33843112 0 8
-0.83610892 -1.3261361 -0.34446397 0 8
-0.8142193 -1.3273163 -0.34214404 0 8
-0.80947256 -1.3567281 -0.34713352 0 8
-0.78751087 -1.3575819 -0.34484825 0 8
-0.77307677 -1.371273 -0.34588519 0 8
-0.76064986 -1.3888768 -0.34793997 0 8
-0.74716419 -1.4049858 -0.34964749 0 8
-0.73337179 -1.4209236 -0.35134304 0 8
-0.7125411 -1.4232335 -0.34972128 0 8
-0.70395082 -1.4503535 -0.35423151 0 8
-0.68585128 -1.4584454 -0.35412127 0 8
-0.67304271 -1.4781349 -0.35686556 0 8
-0.65731323 -1.4919636 -0.35822579 0 8
-0.63522989 -1.4912721 -0.35615736 0 8
-0.62175328 -1.5108953 -0.35899082 0 8
-0.60497373 -1.52307 -0.36008883 0 8
-0.59411603 -1.5510571 -0.36495081 0 8
-0.57119745 -1.5479398 -0.36253732 0 8
-0.55889541 -1.5739222 -0.36698526 0 8
-0.5437057 -1.5929946 -0.36984548 0 8
-0.52315658 -1.5967474 -0.36919528 0 8
-0.50468278 -1.6068757 -0.37007424 0 8
-0.48481011 -1.6127028 -0.37001538 0 8
-0.47026348 -1.6370585 -0.37424845 0 8
-0.44883358 -1.638097 -0.37319595 0 8
-0.43382859 -1.6633147 -0.3776972 0 8
-0.41544938 -1.6770201 -0.37962061 0 8
-0.39293948 -1.6740829 -0.37783343 0 8
-0.3941412 -1.7771506 -0.39997128 0 8
-0.36962971 -1.7692705 -0.39714482 0 8
-0.33433315 -1.704771 -0.38171506 0 8
-0.3100296 -1.6906635 -0.37767407 0 8
-0.28879073 -1.6918414 -0.37711543 0 8
-0.26779047 -1.6941489 -0.37686729 0 8
-0.24539948 -1.6867266 -0.37451661 0 8
-0.22550364 -1.6960992 -0.37595358 0 8
-0.20415588 -1.6947901 -0.37507859 0 8
-0.18197176 -1.6848549 -0.37235644 0 8
-0.16305687 -1.7059548 -0.37654799 0 8
-0.14151993 -1.7012314 -0.37509295 0 8
-0.12035107 -1.6994454 -0.37434459 0 8
-0.10020606 -1.7137895 -0.37720427 0 8
-0.078421526 -1.6996127 -0.37384349 0 8
-0.057353381 -1.6955836 -0.37277395 0 8
-0.036451351 -1.6938568 -0.37226763 0 8
-0.015693715 -1.7019864 -0.37398362 0 8
0.0052052001 -1.6925832 -0.37190336 0 8
0.026067447 -1.6957358 -0.37263834 0 8
0.04669654 -1.6873763 -0.37089944 0 8
0.067633435 -1.691507 -0.3719621 0 8
0.08902128 -1.7019222 -0.37446481 0 8
0.11000811 -1.7017431 -0.37469471 0 8
0.13015442 -1.6902722 -0.37249324 0 8
0.1509122 -1.688374 -0.37245575 0 8
0.17336164 -1.7031052 -0.37614727 0 8
0.19411899 -1.6993554 -0.37581787 0 8
0.215158 -1.6980965 -0.37609613 0 8
0.23616362 -1.6963489 -0.37632379 0 8
0.25643918 -1.6896002 -0.37549776 0 8
0.27709907 -1.6857398 -0.37536868 0 8
0.29693326 -1.6772799 -0.37426966 0 8
0.32071334 -1.6902589 -0.37801719 0 8
0.35864404 -1.7709845 -0.39702734 0 8
0.38131404 -1.770722 -0.39798954 0 8
0.40657941 -1.7813314 -0.40146747 0 8
0.42749366 -1.7722284 -0.4005703 0 8
0.44819406 -1.7626781 -0.39962715 0 8
0.47481036 -1.7756469 -0.40386054 0 8
0.49632534 -1.7686709 -0.40363148 0 8
0.29198292 -0.99337149 -0.22750121 0 8
0.3082203 -1.002869 -0.23052689 0 8
0.32167727 -1.002586 -0.2313536 0 8
0.34429935 -1.0294076 -0.23850177 0 8
0.35611764 -1.0227621 -0.23795864 0 8
0.6397962 -1.7672043 -0.41296181 0 8
0.66320205 -1.763793 -0.41403905 0 8
0.68370652 -1.7526031 -0.41335455 0 8
0.71570402 -1.7700318 -0.41950908 0 8
0.73584223 -1.7573458 -0.41861525 0 8
0.76016045 -1.7545505 -0.42014423 0 8
0.79484713 -1.7744751 -0.42722353 0 8
0.81535709 -1.7618709 -0.42657056 0 8
0.8450641 -1.7686769 -0.43070167 0 8
0.86545026 -1.7555221 -0.43005726 0 8
0.89759088 -1.7656406 -0.43520695 0 8
0.93352711 -1.7817538 -0.44197467 0 8
0.95305139 -1.7658556 -0.44090471 0 8
0.98337376 -1.769628 -0.44483218 0 8
1.0052036 -1.7576578 -0.44489661 0 8
1.0376546 -1.7637191 -0.44962651 0 8
1.0703877 -1.7692165 -0.45434904 0 8
1.0915127 -1.7550412 -0.4541212 0 8
0.97083443 -1.5190315 -0.39611211 0 8
0.96627313 -1.4716976 -0.38683814 0 8
0.96881449 -1.4367473 -0.38075396 0 8
0.97658634 -1.4105424 -0.37696326 0 8
0.96612346 -1.3594065 -0.3664445 0 8
0.96565843 -1.3239706 -0.36006594 0 8
0.96243864 -1.2860399 -0.35294223 0 8
0.96908534 -1.262265 -0.34966129 0 8
0.97568321 -1.2390167 -0.34651849 0 8
0.97220409 -1.2038455 -0.33999977 0 8
0.97374237 -1.1758726 -0.33545575 0 8
0.97643954 -1.1500459 -0.3314881 0 8
0.96307003 -1.1064327 -0.32230616 0 8
0.96784395 -1.084693 -0.31941596 0 8
0.96727306 -1.0575844 -0.31491187 0 8
0.95800644 -1.0219331 -0.30778056 0 8
0.96415263 -1.0034711 -0.30576783 0 8
0.97136313 -0.9864074 -0.30418488 0 8
0.96357185 -0.95472533 -0.29804614 0 8
0.97164261 -0.93932986 -0.29694739 0 8
0.96919578 -0.91417938 -0.29274204 0 8
0.96490306 -0.88796633 -0.28812563 0 8
0.97409022 -0.87454677 -0.28763607 0 8
0.99931109 -0.87523967 -0.29188341 0 8
1.0274993 -0.87783945 -0.29694149 0 8
1.0555369 -0.87957346 -0.30189568 0 8
1.077837 -0.87592727 -0.30517012 0 8
1.1097261 -0.8794089 -0.31111372 0 8
1.1451881 -0.88480729 -0.3179813 0 8
1.198904 -0.90298867 -0.32978845 0 8
1.2384357 -0.90911496 -0.33756205 0 8
1.2723275 -0.91013378 -0.34372354 0 8
1.3177437 -0.91833997 -0.35291553 0 8
1.3624756 -0.92483485 -0.36182252 0 8
1.3810296 -0.91282821 -0.36374143 0 8
1.4746087 -0.94883746 -0.38528657 0 8
1.5205479 -0.9521659 -0.39420062 0 8
1.5921555 -0.96995991 -0.40964177 0 8
1.6549387 -0.9805131 -0.4226611 0 8
1.808409 -1.0416151 -0.45855066 0 8
1.804021 -1.009753 -0.45425528 0 8
0.7047531 -0.38316375 -0.17625824 0 8
0.70405179 -0.37164053 -0.17492668 0 8
0.70548004 -0.3613739 -0.17416432 0 8
0.70390248 -0.3497076 -0.17270021 0 8
0.71408528 -0.34388503 -0.1741479 0 8
0.72954905 -0.34034565 -0.17688513 0 8
0.72828591 -0.32891423 -0.17558497 0 8
0.73242766 -0.32000139 -0.17562157 0 8
0.7336362 -0.30984366 -0.17498457 0 8
0.738024 -0.30105823 -0.17513491 0 8
0.7354812 -0.28952488 -0.17367356 0 8
0.75243688 -0.28556493 -0.17683485 0 8
0.75664765 -0.27656823 -0.17701182 0 8
0.74724215 -0.26276091 -0.17404243 0 8
0.75354278 -0.25460964 -0.17476752 0 8
0.76593554 -0.24834681 -0.17692012 0 8
0.759345 -0.23593196 -0.17471446 0 8
0.77213955 -0.22953576 -0.17699552 0 8
0.77198428 -0.21919566 -0.17632875 0 8
0.77509594 -0.20981568 -0.17643684 0 8
0.78472847 -0.20210107 -0.17805037 0 8
0.77928513 -0.19051339 -0.17627044 0 8
0.78438359 -0.18156885 -0.1769053 0 8
0.7759499 -0.16959244 -0.1745197 0 8
0.77970135 -0.16039373 -0.17490664 0 8
0.79006416 -0.15242492 -0.17679745 0 8
0.79596257 -0.14343508 -0.17770927 0 8
0.80059206 -0.13412766 -0.17836115 0 8
0.78336912 -0.12135952 -0.17417848 0 8
0.79916149 -0.11376249 -0.17736541 0 8
0.78168529 -0.1014851 -0.17319669 0 8
0.804636 -0.094419837 -0.17801113 0 8
0.79458159 -0.083349191 -0.17554677 0 8
0.78839248 -0.072911479 -0.17396817 0 8
0.85887361 -0.068790317 -0.18931971 0 8
1.0181341 -0.0689587 -0.2242213 0 8
1.2599049 -0.069783442 -0.27725598 0 8
1.5943201 -0.068654716 -0.35063547 0 8
7.0750742 -0.21755368 -1.5553002 0 8
7.0730457 -0.13046847 -1.5543842 0 8
7.0772085 -0.043510702 -1.5550638 0 8
7.079783 0.043526527 -1.5556295 0 8
7.0682349 0.13037974 -1.5533268 0 8
7.0698442 0.21739286 -1.5541506 0 8
7.0590196 0.30397597 -1.5524753 0 8
7.0672007 0.39143717 -1.5552156 0 8
7.073318 0.47907916 -1.5577404 0 8
7.0116658 0.56158984 -1.5455668 0 8
7.0184298 0.64907277 -1.5487 0 8
7.0192165 0.73629445 -1.5507542 0 8
7.0077486 0.82232273 -1.5503373 0 8
7.031919 0.91294414 -1.5580504 0 8
7.023571 0.9998216 -1.5588069 0 8
6.9675274 1.0794091 -1.5491973 0 8
6.9631534 1.1665759 -1.5512969 0 8
6.9547133 1.2532622 -1.5527325 0 8
6.9701619 1.3447343 -1.5597556 0 8
6.9178066 1.4230741 -1.5518382 0 8
6.915885 1.5115433 -1.5554589 0 8
6.9031115 1.5979298 -1.5568875 0 8
6.8499103 1.6746112 -1.5494159 0 8
6.8511853 1.7644725 -1.5544945 0 8
6.7994208 1.8405787 -1.5477676 0 8
6.799665 1.9306833 -1.5531099 0 8
6.8177857 2.0267394 -1.5628232 0 8
6.7466164 2.0962045 -1.5523003 0 8
6.7577786 2.1911411 -1.5609498 0 8
6.6940746 2.261817 -1.5525421 0 8
6.6599979 2.3419278 -1.5512004 0 8
6.650928 2.4310329 -1.5559328 0 8
6.5924687 2.5019746 -1.5493369 0 8
6.6005869 2.5983453 -1.5586358 0 8
6.5580778 2.6752021 -1.5562481 0 8
6.4993682 2.744941 -1.5502086 0 8
6.4952312 2.8377995 -1.5574272 0 8
6.4576335 2.9164476 -1.5568933 0 8
6.3971829 2.9843829 -1.5510494 0 8
6.3702865 3.0677655 -1.5535568 0 8
6.3164806 3.1381068 -1.5497282 0 8
6.3186851 3.2366726 -1.5599159 0 8
6.2653174 3.3072081 -1.5566627 0 8
6.2186084 3.3809645 -1.5552694 0 8
6.1832747 3.4609244 -1.5569582 0 8
6.1492405 3.5418658 -1.559237 0 8
6.1024632 3.6155691 -1.5585313 0 8
6.0590181 3.6912255 -1.55891 0 8
6.0204458 3.7699986 -1.5607949 0 8
5.939383 3.821698 -1.5518453 0 8
5.9125648 3.9080667 -1.5572764 0 8
5.8526464 3.9727178 -1.5542437 0 8
5.8175979 4.0543032 -1.5580577 0 8
5.735528 4.1027942 -1.5494721 0 8
5.7006164 4.1847272 -1.5538245 0 8
5.6717854 4.2718663 -1.560166 0 8
5.5887632 4.3180494 -1.5518169 0 8
5.5592098 4.4054284 -1.5585346 0 8
5.4835558 4.4563284 -1.55257 0 8
5.4333172 4.5275555 -1.5539912 0 8
5.3818474 4.5979571 -1.5553234 0 8
5.3279142 4.6664171 -1.5562019 0 8
5.267127 4.7288728 -1.5553136 0 8
5.2105794 4.7951131 -1.5559092 0 8
5.1397057 4.84795 -1.5524292 0 8
5.0823083 4.9132919 -1.5532236 0 8
5.020679 4.9745846 -1.5529658 0 8
4.9776788 5.0547719 -1.558773 0 8
4.9098406 5.1100659 -1.5570889 0 8
4.8512568 5.1749754 -1.5585725 0 8
4.7748528 5.2206659 -1.5545329 0 8
4.7260718 5.2966557 -1.5597377 0 8
4.6415653 5.332509 -1.5533711 0 8
4.5813069 5.3958416 -1.5552921 0 8
4.5103798 5.4466476 -1.5538328 0 8
4.4531808 5.5142145 -1.557369 0 8
4.3797755 5.5618615 -1.5554979 0 8
4.3134174 5.6183658 -1.556349 0 8
4.2488141 5.6773953 -1.5581106 0 8
4.1714087 5.7192292 -1.5553969 0 8
4.1074972 5.7795491 -1.5579476 0 8
4.0327535 5.824748 -1.5566467 0 8
3.9636445 5.8780661 -1.5577527 0 8
3.8963645 5.9344196 -1.5598719 0 8
3.8264494 5.9871149 -1.5612373 0 8
3.7457492 6.0227828 -1.5584098 0 8
3.6711419 6.0679359 -1.5582948 0 8
3.5903356 6.1025534 -1.5557296 0 8
3.5190895 6.1533356 -1.5575262 0 8
3.4513822 6.210927 -1.5612434 0 8
3.3680434 6.240459 -1.5581386 0 8
3.2956855 6.2902298 -1.5603291 0 8
3.2098601 6.3140783 -1.5563364 0 8
3.1462164 6.3819413 -1.5634096 0 8
3.0592458 6.4028487 -1.559198 0 8
2.9746654 6.4278297 -1.5562564 0 8
2.8970854 6.4676661 -1.5571586 0 8
2.820919 6.5110526 -1.5591351 0 8
2.7445116 6.5544701 -1.5613326 0 8
2.6550608 6.5663209 -1.5562608 0 8
2.5747824 6.6001587 -1.5566591 0 8
2.4977086 6.642683 -1.559327 0 8
2.4143245 6.668694 -1.558346 0 8
2.3351607 6.7065306 -1.56036 0 8
2.2552173 6.7427888 -1.5622258 0 8
2.1625617 6.7401538 -1.5553366 0 8
2.087796 6.7931476 -1.5615231 0 8
2.0059936 6.8247037 -1.5629886 0 8
1.9144351 6.8221498 -1.5568948 0 8
1.8431515 6.892828 -1.5677335 0 8
1.7549101 6.9017906 -1.5647458 0 8
1.6695355 6.9212685 -1.564389 0 8
1.5844841 6.9420419 -1.5645623 0 8
1.5028652 6.9789104 -1.568588 0 8
1.4091903 6.9585829 -1.5600066 0 8
1.3221047 6.9679022 -1.5583334 0 8
1.2381419 6.9938631 -1.5606165 0 8
1.1550078 7.0265217 -1.5646166 0 8
1.0661064 7.0242524 -1.5610741 0 8
0.98343509 7.0639548 -1.5670916 0 8
0.89315242 7.0490479 -1.5612302 0 8
0.80949402 7.0864682 -1.5671949 0 8
0.72051495 7.078341 -1.56332 0 8
0.63187599 7.0692964 -1.5594885 0 8
0.54853809 7.1236815 -1.5698793 0 8
0.45978096 7.1124673 -1.5660436 0 8
0.3706356 7.0858665 -1.5590652 0 8
0.28394532 7.1014504 -1.5616078 0 8
0.19653589 7.1018105 -1.5610375 0 8
0.10918348 7.1025877 -1.5607952 0 8
0.021818981 7.094913 -1.5589319 0 8
-0.065516166 7.1052403 -1.5612601 0 8
-0.15279208 7.1000915 -1.5604236 0 8
-0.24024573 7.1025758 -1.5615008 0 8
-0.32803255 7.1093788 -1.5637649 0 8
-0.41516495 7.1004219 -1.5627996 0 8
-0.50240934 7.0943885 -1.5627133 0 8
-0.5897786 7.0898132 -1.5631847 0 8
-0.68049532 7.1195669 -1.571471 0 8
-0.76165473 7.0520706 -1.5585223 0 8
-0.85200626 7.0728889 -1.5653203 0 8
-0.94134158 7.0801907 -1.5693793 0 8
-1.0217665 7.0230002 -1.5593697 0 8
-1.1129698 7.0410886 -1.5663062 0 8
-1.2010236 7.0360341 -1.5683486 0 8
-1.2845834 7.0051322 -1.5648631 0 8
-1.3727809 6.9998355 -1.5673321 0 8
-1.4538999 6.9592409 -1.5621276 0 8
-1.5435816 6.9598842 -1.5664141 0 8
-1.6266915 6.9303708 -1.5641553 0 8
-1.7143971 6.9204054 -1.5665457 0 8
-1.7989987 6.8974271 -1.5662333 0 8
-1.8881084 6.8909836 -1.5699235 0 8
-1.9670349 6.8475471 -1.5654198 0 8
-2.0426273 6.7947245 -1.5589682 0 8
-2.1407487 6.8159976 -1.56977 0 8
-2.2150822 6.7607422 -1.5631992 0 8
-2.2991555 6.7362585 -1.5639567 0 8
-2.3941274 6.7421737 -1.5720462 0 8
-2.4689529 6.6908398 -1.5670371 0 8
-2.5493469 6.6555729 -1.5660009 0 8
-2.6432729 6.6546526 -1.5733131 0 8
-2.7203794 6.6106739 -1.5707054 0 8
-2.7967744 6.5657358 -1.5680808 0 8
-2.8694284 6.5130024 -1.5637951 0 8
-2.9532261 6.4858685 -1.5658809 0 8
-3.0266662 6.4361291 -1.5627396 0 8
-3.1298246 6.4483938 -1.5749432 0 8
-3.2041924 6.4000711 -1.5726451 0 8
-3.2862339 6.3671484 -1.5743656 0 8
-3.3593369 6.3169789 -1.5720556 0 8
-3.4301136 6.263073 -1.5690184 0 8
-3.5101964 6.2263384 -1.5705101 0 8
-3.5845451 6.1793599 -1.5696596 0 8
-3.6659625 6.1443892 -1.5721083 0 8
-3.7357919 6.0899782 -1.5698215 0 8
-3.8104837 6.0437341 -1.5698605 0 8
-3.8959844 6.0141435 -1.574499 0 8
-3.9662328 5.9606695 -1.5731487 0 8
