# .PCD v0.7 - Point Cloud Data file format
VERSION 0.7
FIELDS x y z intensity ring
SIZE 4 4 4 4 2
TYPE F F F F U
COUNT 1 1 1 1 1
WIDTH 1287
HEIGHT 1
VIEWPOINT 0 0 0 1 0 0 0
POINTS 1287
DATA ascii
-7.2701426 29.346956 -2.9309196 0 21
-7.6021318 29.146852 -2.9200501 0 21
-7.938612 28.97336 -2.9122286 0 21
-8.4261532 29.33272 -2.95854 0 21
-8.7599926 29.139791 -2.9497225 0 21
-9.0937738 28.953957 -2.942008 0 21
-9.4274235 28.773823 -2.9352617 0 21
-9.7600632 28.595852 -2.9291282 0 21
-10.083211 28.395636 -2.9210989 0 21
-10.414012 28.221878 -2.916177 0 21
-10.947913 28.581686 -2.9670424 0 21
-11.27941 28.396822 -2.9620259 0 21
-11.609118 28.210804 -2.9572892 0 21
-11.938205 28.026251 -2.9531081 0 21
-12.266297 27.84193 -2.9493566 0 21
-12.592656 27.655964 -2.945837 0 21
-0.94490921 2.0093255 -0.21524918 0 21
-0.95622456 1.9701144 -0.21229222 0 21
-0.95186239 1.9012551 -0.20611787 0 21
-0.94872844 1.8381817 -0.20052955 0 21
-0.96059823 1.8063323 -0.19832866 0 21
-0.98611683 1.8005589 -0.19901106 0 21
-1.0156194 1.8014917 -0.20047934 0 21
-1.313789 2.264827 -0.25382033 0 21
-1.3136872 2.2018242 -0.24855113 0 21
-1.3086679 2.1333518 -0.24261986 0 21
-1.3084109 2.0752449 -0.23782331 0 21
-1.3080175 2.0191572 -0.23322122 0 21
-1.3137599 1.9743894 -0.22989891 0 21
-1.3060675 1.9114457 -0.22442278 0 21
-1.3096832 1.8670337 -0.22108248 0 21
-1.3154802 1.8270942 -0.21825202 0 21
-1.3194296 1.7858549 -0.21524765 0 21
-1.3140706 1.7335902 -0.21087985 0 21
-1.3056089 1.6791335 -0.20619287 0 21
-1.3234251 1.659529 -0.20576826 0 21
-1.3438863 1.6433226 -0.2057922 0 21
-1.3478676 1.607447 -0.20335972 0 21
-1.3642679 1.5869581 -0.2028746 0 21
-20.102654 22.810553 -2.9474487 0 21
-20.423874 22.60845 -2.9535618 0 21
-20.771687 22.432699 -2.9637456 0 21
-21.105385 22.238241 -2.9721169 0 21
-21.451286 22.053202 -2.9824145 0 21
-21.393171 21.45912 -2.9374259 0 21
-21.731827 21.269251 -2.9477921 0 21
-22.074232 21.07925 -2.9588547 0 21
-1.0576051 0.98535919 -0.14012788 0 21
-1.0704092 0.97297937 -0.14022854 0 21
-1.111719 0.98583996 -0.14404134 0 21
-1.1178026 0.96694601 -0.1432782 0 21
-1.1532836 0.97310627 -0.14628129 0 21
-1.1716046 0.96415496 -0.14709023 0 21
-1.1832174 0.94955337 -0.14707114 0 21
-1.2129797 0.94915634 -0.14930852 0 21
-1.241257 0.94690907 -0.15134455 0 21
-1.2706863 0.94487131 -0.1535046 0 21
-1.301096 0.9428637 -0.15576585 0 21
-1.3382083 0.94488287 -0.15880592 0 21
-25.350758 17.436562 -2.9827187 0 21
-1.5100372 1.011499 -0.17619118 0 21
-25.640776 16.722454 -2.9675496 0 21
-26.014605 16.513937 -2.9870872 0 21
-25.948137 16.027567 -2.9566021 0 21
-26.31806 15.812341 -2.9763725 0 21
-26.251587 15.336297 -2.9473047 0 21
-26.649137 15.132154 -2.9708233 0 21
-27.012423 14.902228 -2.9906678 0 21
-1.394846 0.74728835 -0.15340078 0 21
-1.3555547 0.7049256 -0.14811516 0 21
-27.300724 13.773348 -2.9642935 0 21
-27.682274 13.541442 -2.9874165 0 21
-27.642111 13.103078 -2.9654698 0 21
-28.03961 12.871687 -2.9909077 0 21
-28.012207 12.444411 -2.9714377 0 21
-27.980604 12.020644 -2.952183 0 21
-28.380569 11.781255 -2.9788725 0 21
-28.375803 11.372304 -2.9634707 0 21
-28.357136 10.962108 -2.9472206 0 21
-28.793516 10.725757 -2.9786417 0 21
-28.789789 10.323071 -2.9649007 0 21
-28.792612 9.9262695 -2.9523983 0 21
-29.241211 9.6803236 -2.9859662 0 21
-29.243385 9.2836609 -2.9743061 0 21
-29.300545 8.906745 -2.968756 0 21
-29.324968 8.5217228 -2.9603896 0 21
-29.373751 8.1455984 -2.9549797 0 21
-29.428833 7.7724991 -2.9506831 0 21
-29.906763 7.5065994 -2.9891219 0 21
-29.98012 7.1343431 -2.9874597 0 21
-30.078403 6.7680683 -2.9887345 0 21
-30.164206 6.3987575 -2.9892159 0 21
-29.869518 5.9534259 -2.9525352 0 21
-29.99725 5.5963087 -2.9581354 0 21
-30.131453 5.2388172 -2.9647927 0 21
-30.259201 4.8785167 -2.9712355 0 21
-30.423979 4.5220108 -2.98173 0 21
-30.23181 4.1141839 -2.9577146 0 21
-30.433422 3.7611034 -2.9726899 0 21
-30.592686 3.3994379 -2.9839377 0 21
-30.462774 3.00631 -2.9674366 0 21
-30.710352 2.6498983 -2.9881535 0 21
-30.621443 2.2632895 -2.9765697 0 21
-30.531946 1.8795313 -2.9653993 0 21
-30.4918 1.500982 -2.9594839 0 21
-30.770472 1.1356443 -2.9849501 0 21
-30.784723 0.75728315 -2.9852037 0 21
-30.790075 0.37869099 -2.9850454 0 21
-30.796591 8.1721519e-05 -2.9854515 0 21
-34.223492 -9.0815105e-05 -2.9999895 0 22
-34.259602 -0.42136312 -3.003382 0 22
-34.310944 -0.84402579 -3.0085654 0 22
-34.366112 -1.2683483 -3.0145423 0 22
-34.512085 -1.6988837 -3.0289505 0 22
-34.241581 -2.1078944 -3.007257 0 22
-34.421066 -2.544127 -3.0255392 0 22
-34.1912 -2.9502497 -3.008296 0 22
-34.405014 -3.3953617 -3.0305526 0 22
-34.210125 -3.8014052 -3.0172749 0 22
-34.056145 -4.2088165 -3.0080314 0 22
-33.886681 -4.611568 -2.9978454 0 22
-34.193527 -5.0822902 -3.0302906 0 22
-34.067978 -5.4925842 -3.0249212 0 22
-33.984089 -5.9086576 -3.023695 0 22
-33.868042 -6.3184466 -3.0200543 0 22
-33.792152 -6.7352638 -3.0204442 0 22
-33.741615 -7.1576357 -3.0235651 0 22
-33.679321 -7.5783262 -3.0261047 0 22
-33.630306 -8.0029745 -3.0303137 0 22
-33.097332 -8.3074322 -2.9912674 0 22
-33.056625 -8.7306414 -2.9970646 0 22
-33.047405 -9.1643343 -3.0062182 0 22
-33.038376 -9.6008244 -3.0159082 0 22
-33.084507 -10.05699 -3.031179 0 22
-32.558064 -10.335946 -2.9943647 0 22
-32.603775 -10.793503 -3.0105476 0 22
-32.634026 -11.250599 -3.0258861 0 22
-32.139748 -11.524257 -2.992969 0 22
-32.19973 -11.994592 -3.0120618 0 22
-32.276295 -12.477149 -3.0333467 0 22
-31.795811 -12.742956 -3.0026896 0 22
-31.866367 -13.228268 -3.0244851 0 22
-31.418921 -13.497766 -2.9975436 0 22
-31.520035 -14.002762 -3.0233893 0 22
-31.069586 -14.262609 -2.9967782 0 22
-31.143604 -14.762877 -3.0211985 0 22
-30.704191 -15.019684 -2.9962616 0 22
-30.8325 -15.555146 -3.0272191 0 22
-30.360815 -15.788455 -2.9997425 0 22
-29.934265 -16.037273 -2.9768572 0 22
-30.057386 -16.582075 -3.0091507 0 22
-29.655922 -16.839493 -2.9894631 0 22
-29.787043 -17.401728 -3.0240221 0 22
-29.344854 -17.630892 -3.0009134 0 22
-9.4455557 -5.8343024 -0.97320044 0 22
-9.1887903 -5.8329968 -0.95406312 0 22
-8.967082 -5.8481703 -0.93843901 0 22
-8.7374926 -5.8528132 -0.92187369 0 22
-8.5212593 -5.8610268 -0.90659481 0 22
-8.3134851 -5.8699899 -0.89210117 0 22
-8.099227 -5.869257 -0.87678784 0 22
-7.9094672 -5.8814111 -0.86400914 0 22
-7.7163515 -5.8865199 -0.85075635 0 22
-7.5366354 -5.8974156 -0.8388738 0 22
-7.3477116 -5.8966713 -0.82585365 0 22
-7.1725302 -5.9025292 -0.81426018 0 22
-7.1027536 -5.9930916 -0.81464326 0 22
-7.1036334 -6.1449394 -0.82334828 0 22
-7.1155872 -6.309895 -0.83366382 0 22
-7.1120815 -6.4647322 -0.84250289 0 22
-7.1163492 -6.6302252 -0.85260189 0 22
-7.1152716 -6.7945552 -0.86241752 0 22
-7.139503 -6.9875345 -0.87570262 0 22
-7.1389155 -7.1609225 -0.88636392 0 22
-7.1504326 -7.3510714 -0.89894897 0 22
-7.1684637 -7.5532393 -0.91282338 0 22
-7.1520748 -7.7239919 -0.92276108 0 22
-7.1722255 -7.9393802 -0.93788576 0 22
-7.1644568 -8.1295347 -0.94987011 0 22
-7.1821218 -8.3544626 -0.96575922 0 22
-7.178905 -8.5614557 -0.97940874 0 22
-7.199358 -8.8034744 -0.99689239 0 22
-7.19489 -9.0221424 -1.0115591 0 22
-7.209259 -9.2717733 -1.0295306 0 22
-7.2118006 -9.514183 -1.0465215 0 22
-7.2301917 -9.7861023 -1.0665717 0 22
-7.2304478 -10.042499 -1.0847439 0 22
-7.2380748 -10.318319 -1.1048396 0 22
-7.2585306 -10.622948 -1.1278156 0 22
-7.2653332 -10.918736 -1.149647 0 22
-7.2750554 -11.230339 -1.1729484 0 22
-7.2785277 -11.544332 -1.1963049 0 22
-7.2990546 -11.898704 -1.2236341 0 22
-17.572384 -29.452444 -3.0063705 0 22
-17.20326 -29.656523 -3.0053818 0 22
-16.829552 -29.852028 -3.0039954 0 22
-16.455736 -30.046665 -3.0029924 0 22
-16.092384 -30.260511 -3.0043612 0 22
-15.725484 -30.468462 -3.0055819 0 22
-15.356641 -30.673437 -3.0069468 0 22
-14.987539 -30.878904 -3.008795 0 22
-14.61589 -31.08032 -3.0106812 0 22
-13.938789 -30.612337 -2.9485228 0 22
-13.580709 -30.825371 -2.952734 0 22
-13.213152 -31.019331 -2.9555264 0 22
-12.847588 -31.220358 -2.959404 0 22
-12.478727 -31.416201 -2.9631991 0 22
-12.119667 -31.640781 -2.9701006 0 22
-11.747268 -31.834986 -2.9745462 0 22
-11.382047 -32.053326 -2.9816444 0 22
-11.008191 -32.252724 -2.9873753 0 22
-10.638422 -32.469959 -2.9951534 0 22
-10.258881 -32.663574 -3.0011501 0 22
-9.6770391 -32.190311 -2.9465106 0 22
-9.3027573 -32.384308 -2.9535739 0 22
-8.9338837 -32.605778 -2.9635293 0 22
-8.5570898 -32.808193 -2.9721386 0 22
-8.180604 -33.02216 -2.9821839 0 22
-7.8020692 -33.240005 -2.9929671 0 22
-7.2685771 -32.773422 -2.9426851 0 22
-6.8891325 -32.97554 -2.9530034 0 22
-6.5071006 -33.179829 -2.9639082 0 22
-6.1227665 -33.38887 -2.9756315 0 22
-5.7354732 -33.600491 -2.9879801 0 22
-5.2449589 -33.181694 -2.9447796 0 22
-4.8531356 -33.357498 -2.9548624 0 22
-4.4631038 -33.56871 -2.9684863 0 22
-4.0704927 -33.791 -2.9834914 0 22
-3.6025391 -33.35548 -2.9409049 0 22
-3.2088354 -33.571896 -2.9562836 0 22
-2.8104656 -33.785011 -2.9717822 0 22
-2.3624146 -33.359024 -2.931535 0 22
-1.9633193 -33.577969 -2.9484308 0 22
-1.5595373 -33.799515 -2.9659765 0 22
-1.1514193 -34.040325 -2.9856398 0 22
-0.7235958 -33.624756 -2.9481874 0 22
-0.3121137 -33.848789 -2.9672699 0 22
0.10286164 -33.447685 -2.9319973 0 22
0.51781976 -33.685135 -2.9531467 0 22
0.93874747 -33.921574 -2.9746623 0 22
1.3411431 -33.541885 -2.9425902 0 22
1.7660551 -33.763706 -2.9637313 0 22
2.1607227 -33.424763 -2.9360898 0 22
2.5901132 -33.636936 -2.9573016 0 22
2.9764123 -33.299477 -2.9306288 0 22
3.4152336 -33.551266 -2.9562607 0 22
3.7938728 -33.212303 -2.9302831 0 22
4.2426362 -33.484261 -2.9586565 0 22
4.6139946 -33.142044 -2.9332099 0 22
5.0714364 -33.414158 -2.9625888 0 22
5.4426603 -33.110573 -2.9413834 0 22
5.9069295 -33.366333 -2.9703317 0 22
6.279151 -33.093075 -2.952656 0 22
6.6477976 -32.826828 -2.9359725 0 22
7.1270266 -33.096035 -2.9676635 0 22
7.4931626 -32.829517 -2.9518042 0 22
7.8654509 -32.607212 -2.9402897 0 22
8.2309179 -32.37093 -2.9278886 0 22
8.73036 -32.648903 -2.9625168 0 22
9.1038942 -32.442013 -2.9536781 0 22
9.4815941 -32.257862 -2.9473045 0 22
9.8551264 -32.066029 -2.9406271 0 22
10.23159 -31.889259 -2.9357321 0 22
10.6222 -31.758915 -2.9355352 0 22
10.995616 -31.57917 -2.9311969 0 22
11.400562 -31.489906 -2.9357016 0 22
11.783593 -31.338594 -2.9348817 0 22
12.189833 -31.247236 -2.940141 0 22
12.602 -31.166433 -2.9468961 0 22
13.013195 -31.078241 -2.953464 0 22
13.257442 -30.59992 -2.923279 0 22
13.687954 -30.557995 -2.9351311 0 22
14.133724 -30.540972 -2.9499662 0 22
14.398084 -30.134468 -2.9275815 0 22
14.856849 -30.136368 -2.9452915 0 22
15.141933 -29.785522 -2.9289782 0 22
15.437531 -29.464466 -2.9158533 0 22
15.928604 -29.51322 -2.9398391 0 22
16.253065 -29.248167 -2.9331229 0 22
16.590504 -29.009476 -2.9294229 0 22
17.002785 -28.89992 -2.93925 0 22
17.379133 -28.725523 -2.9430251 0 22
17.573647 -28.256632 -2.9169047 0 22
17.98151 -28.135056 -2.9269581 0 22
18.404188 -28.030788 -2.9394321 0 22
18.626247 -27.622637 -2.9204285 0 22
19.088223 -27.570267 -2.9394851 0 22
19.308231 -27.168095 -2.921699 0 22
19.557896 -26.814945 -2.909364 0 22
20.058449 -26.802713 -2.9345756 0 22
20.326651 -26.47612 -2.9259624 0 22
20.578117 -26.132078 -2.9156849 0 22
20.873451 -25.846848 -2.9122782 0 22
21.149466 -25.539688 -2.9067519 0 22
21.44832 -25.261728 -2.9049137 0 22
21.74341 -24.980137 -2.9030585 0 22
22.045286 -24.706839 -2.9025812 0 22
22.361277 -24.449081 -2.9043832 0 22
22.687908 -24.201845 -2.9079344 0 22
23.02018 -23.958952 -2.9125414 0 22
23.361212 -23.723026 -2.9185612 0 22
23.707201 -23.489546 -2.9254799 0 22
24.091919 -23.290722 -2.937391 0 22
24.086279 -22.719021 -2.9024227 0 22
24.462765 -22.512222 -2.9142122 0 22
24.843901 -22.305073 -2.9267213 0 22
24.846596 -21.761719 -2.8952963 0 22
25.270584 -21.589809 -2.9135468 0 22
25.660534 -21.382793 -2.9279697 0 22
25.670191 -20.861427 -2.8995821 0 22
26.105804 -20.687698 -2.9198322 0 22
26.090555 -20.15836 -2.8901839 0 22
26.542364 -19.991135 -2.9127822 0 22
26.98938 -19.812452 -2.934881 0 22
26.997 -19.311758 -2.9096668 0 22
27.490942 -19.158529 -2.9372902 0 22
27.472889 -18.648323 -2.9106407 0 22
27.470385 -18.15728 -2.8865023 0 22
27.962677 -17.992592 -2.9147627 0 22
27.977856 -17.519712 -2.8936703 0 22
28.485376 -17.353628 -2.9238706 0 22
7.37709 -4.3707561 -0.75164509 0 22
7.4398346 -4.2852278 -0.75261235 0 22
29.006004 -16.235344 -2.9138267 0 22
29.010185 -15.772405 -2.8945448 0 22
29.555933 -15.601385 -2.9296353 0 22
29.559752 -15.141638 -2.9113381 0 22
29.543102 -14.677385 -2.8917043 0 22
30.125237 -14.507536 -2.9310014 0 22
30.10602 -14.044913 -2.9121087 0 22
30.136242 -13.610368 -2.8986244 0 22
30.127666 -13.162931 -2.8820136 0 22
30.712898 -12.971275 -2.9225183 0 22
30.710657 -12.527637 -2.9074268 0 22
30.720606 -12.09328 -2.8940718 0 22
30.721783 -11.659534 -2.8804584 0 22
31.344889 -11.457117 -2.9254503 0 22
31.332914 -11.017935 -2.9114678 0 22
31.337132 -10.588298 -2.8995423 0 22
31.338392 -10.161156 -2.8878798 0 22
31.980633 -9.9365292 -2.9355819 0 22
31.964878 -9.5022745 -2.9231892 0 22
31.959993 -9.0746565 -2.9123178 0 22
31.988388 -8.6591415 -2.904983 0 22
31.990479 -8.2389135 -2.8957536 0 22
31.970421 -7.8158727 -2.8850205 0 22
31.976065 -7.4018087 -2.877099 0 22
32.650932 -7.1362228 -2.9297042 0 22
32.652172 -6.7169352 -2.9221835 0 22
32.646938 -6.2984843 -2.9145634 0 22
32.648933 -5.8834457 -2.9080632 0 22
32.641747 -5.4686542 -2.9012141 0 22
32.65218 -5.0584745 -2.8963938 0 22
32.643845 -4.6469264 -2.8903673 0 22
32.62545 -4.2357163 -2.883909 0 22
32.642117 -3.8303821 -2.881001 0 22
32.659771 -3.4259105 -2.8786235 0 22
32.650036 -3.0195146 -2.8742757 0 22
33.344635 -2.6706934 -2.9323106 0 22
33.349487 -2.2587762 -2.930073 0 22
33.338928 -1.8465722 -2.9269292 0 22
33.351456 -1.4361826 -2.9262574 0 22
33.337425 -1.025103 -2.9236994 0 22
33.350079 -0.61517119 -2.9239247 0 22
33.343159 -0.20499383 -2.9228756 0 22
33.346317 0.20501326 -2.9231529 0 22
33.335354 0.61489952 -2.9226334 0 22
33.341827 1.0252384 -2.9240854 0 22
33.333706 1.4354182 -2.9247 0 22
33.337284 1.8464811 -2.9267848 0 22
33.346348 2.2585638 -2.9297974 0 22
33.340038 2.670325 -2.931906 0 22
32.651276 3.019629 -2.8743846 0 22
32.645149 3.4243767 -2.8773346 0 22
32.654724 3.8318613 -2.8821137 0 22
32.64579 4.2383571 -2.8857069 0 22
32.655804 4.6486292 -2.8914263 0 22
32.655975 5.0590625 -2.8967307 0 22
32.645813 5.4693356 -2.9015756 0 22
32.659584 5.8853645 -2.9090116 0 22
32.657452 6.3005128 -2.9155021 0 22
32.659931 6.7185316 -2.922878 0 22
32.662914 7.1388416 -2.9307792 0 22
31.98304 7.4034233 -2.8777266 0 22
31.991781 7.8210945 -2.8869479 0 22
31.973408 8.2345171 -2.8942084 0 22
31.99905 8.6620283 -2.9059515 0 22
31.974844 9.0788727 -2.913671 0 22
31.973953 9.5049734 -2.9240193 0 22
31.974062 9.9344883 -2.9349787 0 22
31.331728 10.158995 -2.8872657 0 22
31.340839 10.589551 -2.8998854 0 22
31.339251 11.020163 -2.9120567 0 22
31.342304 11.456172 -2.925209 0 22
30.723349 11.660129 -2.8806052 0 22
30.733049 12.098178 -2.8952439 0 22
30.724686 12.533359 -2.9087548 0 22
30.720816 12.974619 -2.9232717 0 22
30.147936 13.171787 -2.8839526 0 22
30.147802 13.615588 -2.8997364 0 22
30.13349 14.057729 -2.9147658 0 22
30.127977 14.508856 -2.9312682 0 22
29.557915 14.684744 -2.8931541 0 22
29.559563 15.141541 -2.9113197 0 22
29.56711 15.607285 -2.930743 0 22
29.007431 15.770907 -2.8942702 0 22
29.008371 16.236668 -2.9140644 0 22
29.008089 16.708202 -2.9344532 0 22
28.499264 16.885159 -2.9037645 0 22
28.491362 17.357275 -2.924485 0 22
20.334784 12.733626 -2.103169 0 22
20.115107 12.943072 -2.096751 0 22
20.114037 13.294906 -2.1135201 0 22
27.494017 18.662663 -2.912879 0 22
27.497578 19.163153 -2.9379992 0 22
26.996256 19.311226 -2.9095867 0 22
26.99827 19.818979 -2.9358475 0 22
26.558372 20.003193 -2.9145391 0 22
26.098665 20.164625 -2.8910823 0 22
26.106071 20.687908 -2.9198618 0 22
25.684612 20.873148 -2.9012113 0 22
25.669901 21.390598 -2.9290385 0 22
25.27235 21.591318 -2.9137504 0 22
24.865257 21.778063 -2.897471 0 22
24.855469 22.315456 -2.9280839 0 22
24.475588 22.524023 -2.9157398 0 22
24.090351 22.722862 -2.9029136 0 22
24.10116 23.299656 -2.9385178 0 22
23.72682 23.508986 -2.927901 0 22
23.376791 23.738846 -2.9205074 0 22
23.030331 23.969517 -2.9138258 0 22
22.695866 24.210335 -2.9089546 0 22
22.369848 24.458454 -2.9054968 0 22
22.053354 24.715883 -2.9036438 0 22
21.752934 24.991077 -2.9043303 0 22
21.449049 25.262589 -2.9050126 0 22
21.153049 25.544014 -2.9072444 0 22
20.876942 25.851168 -2.912765 0 22
20.589844 26.146969 -2.9173465 0 22
20.335371 26.487478 -2.9272177 0 22
20.063257 26.809137 -2.9352791 0 22
19.569017 26.830194 -2.9110184 0 22
19.322159 27.187693 -2.9238067 0 22
19.083227 27.563051 -2.9387157 0 22
18.637177 27.638847 -2.9221423 0 22
18.416121 28.048964 -2.9413381 0 22
7.3063369 11.431976 -1.1892962 0 22
17.583218 28.27202 -2.9184933 0 22
17.394175 28.750385 -2.9455724 0 22
17.007889 28.908592 -2.9401321 0 22
16.582928 28.996227 -2.9280849 0 22
16.258326 29.257633 -2.9340723 0 22
15.936221 29.527332 -2.9412448 0 22
15.45312 29.494221 -2.9187977 0 22
15.151927 29.80518 -2.9309113 0 22
14.862835 30.14851 -2.9464781 0 22
14.398649 30.135653 -2.9276965 0 22
14.133475 30.540434 -2.9499142 0 22
13.693512 30.570402 -2.9363229 0 22
13.267155 30.622341 -2.9254208 0 22
13.013185 31.078218 -2.9534619 0 22
12.601674 31.165628 -2.9468198 0 22
12.196295 31.2638 -2.9416997 0 22
11.785109 31.342625 -2.9352591 0 22
11.405123 31.502504 -2.9368761 0 22
11.005065 31.606306 -2.9337158 0 22
10.627929 31.776041 -2.9371183 0 22
10.237795 31.908596 -2.9375122 0 22
9.856863 32.071682 -2.9411454 0 22
9.484827 32.268864 -2.9483097 0 22
9.1135464 32.476406 -2.9568098 0 22
8.7340193 32.662586 -2.9637585 0 22
8.2395067 32.404709 -2.930944 0 22
7.8719177 32.634018 -2.9427071 0 22
7.499908 32.85907 -2.9544613 0 22
7.1309285 33.114155 -2.9692881 0 22
6.6539278 32.857101 -2.9386799 0 22
6.2827358 33.111969 -2.9543419 0 22
0.17277484 0.97594911 -0.086880766 0 22
0.16094583 0.97911835 -0.086980142 0 22
0.1486592 0.97947043 -0.08684247 0 22
0.13612095 0.97774851 -0.08653485 0 22
0.12170082 0.96050221 -0.084869616 0 22
0.10773722 0.94315261 -0.083213262 0 22
0.0972142 0.95503259 -0.084149592 0 22
0.19686475 2.2024817 -0.19383657 0 22
0.17354913 2.2538249 -0.19815239 0 22
0.14712459 2.2759073 -0.19991969 0 22
1.767404 33.78949 -2.9659948 0 22
1.3418729 33.560139 -2.9441915 0 22
0.93947679 33.947929 -2.9769733 0 22
0.51819122 33.709301 -2.9552655 0 22
0.10294122 33.47356 -2.9342656 0 22
-0.31239033 33.878788 -2.9698997 0 22
-0.72423828 33.654613 -2.9508052 0 22
-1.151842 34.052822 -2.9867361 0 22
-0.11795447 2.5564017 -0.22432949 0 22
-0.13323078 2.2785995 -0.20008039 0 22
-0.15956049 2.2531111 -0.19799963 0 22
-0.18657322 2.2428234 -0.19728225 0 22
-0.24189943 2.5308316 -0.22286069 0 22
-0.10285386 0.95231169 -0.08396396 0 22
-0.11531012 0.95724136 -0.084517226 0 22
-0.12677327 0.95351028 -0.084319063 0 22
-0.13882002 0.95416433 -0.084521458 0 22
-0.15350337 0.97112328 -0.086184397 0 22
-0.16358267 0.95832694 -0.085220829 0 22
-0.18059506 0.9848268 -0.087768219 0 22
-6.5098982 33.194092 -2.9651825 0 22
-6.8925538 32.991917 -2.9544699 0 22
-7.2691822 32.77615 -2.9429302 0 22
-7.8009706 33.235325 -2.9925456 0 22
-8.1832829 33.032974 -2.9831605 0 22
-8.5597153 32.81826 -2.9730506 0 22
-8.9320269 32.598999 -2.9629133 0 22
-9.312911 32.419655 -2.9567976 0 22
-9.6792765 32.197754 -2.9471917 0 22
-10.262177 32.674076 -3.0021148 0 22
-10.646559 32.494793 -2.9974444 0 22
-11.017516 32.280045 -2.9899058 0 22
-11.385395 32.062752 -2.9825213 0 22
-11.748312 31.837816 -2.9748108 0 22
-12.122325 31.64772 -2.970752 0 22
-12.492188 31.450087 -2.9663954 0 22
-12.857295 31.243946 -2.9616401 0 22
-13.222124 31.040394 -2.9575334 0 22
-13.588383 30.842789 -2.9544024 0 22
-13.944451 30.624773 -2.9497206 0 22
-0.95404059 2.0287433 -0.19651982 0 22
-0.95348787 1.964476 -0.19141565 0 22
-0.95016944 1.8978736 -0.1860504 0 22
-0.95735735 1.8549004 -0.18297789 0 22
-0.96327716 1.8113699 -0.17983864 0 22
-0.99687105 1.8201952 -0.1819181 0 22
-1.2850113 2.2793355 -0.22936845 0 22
-1.309265 2.2570281 -0.22872646 0 22
-1.313836 2.2020736 -0.22477756 0 22
-1.3120751 2.1389062 -0.21995997 0 22
-1.3030095 2.066678 -0.21416374 0 22
-1.3136182 2.0278027 -0.21179307 0 22
-1.3189404 1.982175 -0.20870563 0 22
-1.3161079 1.92614 -0.20449415 0 22
-1.3130637 1.8718529 -0.20042965 0 22
-1.3079814 1.8166788 -0.19622917 0 22
-1.3201189 1.786788 -0.19473918 0 22
-1.309835 1.7280024 -0.19007327 0 22
-1.3122818 1.6877158 -0.18740267 0 22
-1.3161232 1.6503727 -0.18503916 0 22
-1.344093 1.6435753 -0.18611604 0 22
-1.351949 1.6123143 -0.18444465 0 22
-1.3618883 1.5841899 -0.18312918 0 22
-22.703676 25.761942 -3.0100737 0 22
-23.076071 25.544331 -3.0175736 0 22
-23.468449 25.345108 -3.0279005 0 22
-23.336208 24.588806 -2.9716041 0 22
-23.713226 24.378611 -2.9812155 0 22
-24.089554 24.163815 -2.9909461 0 22
-24.487236 23.966011 -3.0035055 0 22
-24.865793 23.744984 -3.0138969 0 22
-1.0524977 0.98060071 -0.12609859 0 22
-1.0713648 0.97384799 -0.12691474 0 22
-1.095366 0.97133863 -0.12833335 0 22
-1.1259714 0.97401232 -0.13050598 0 22
-1.1454684 0.96651202 -0.13137835 0 22
-1.1654103 0.95905739 -0.13230298 0 22
-1.1874139 0.95292121 -0.13346063 0 22
-1.220723 0.95521545 -0.13587397 0 22
-1.2330573 0.94065386 -0.13594913 0 22
-1.2663361 0.94163656 -0.13833117 0 22
-1.3120977 0.95083618 -0.14204212 0 22
-1.3340797 0.94196773 -0.14315706 0 22
-28.397125 19.531891 -3.0212302 0 22
-1.5228069 1.0200529 -0.16066802 0 22
-28.658527 18.690578 -2.999223 0 22
-29.069126 18.452932 -3.018219 0 22
-28.937025 17.873734 -2.9814577 0 22
-29.348867 17.633303 -3.0013237 0 22
-29.781572 17.398531 -3.0234668 0 22
-29.657333 16.840296 -2.9896052 0 22
-30.061403 16.584291 -3.009553 0 22
-29.951771 16.046652 -2.9785979 0 22
-1.3479166 0.70095354 -0.13317834 0 22
-30.83152 15.554651 -3.027123 0 22
-30.701906 15.018566 -2.9960387 0 22
-31.158337 14.76986 -3.0226276 0 22
-31.072496 14.263946 -2.9970591 0 22
-31.522129 14.003693 -3.0235901 0 22
-31.426544 13.501041 -2.998271 0 22
-31.877726 13.232984 -3.0255632 0 22
-31.801474 12.745226 -3.0032241 0 22
-32.278515 12.478007 -3.033555 0 22
-32.215076 12.000308 -3.0134974 0 22
-32.138195 11.5237 -2.9928246 0 22
-32.638065 11.251992 -3.0262609 0 22
-32.611042 10.795909 -3.0112185 0 22
-32.570496 10.339892 -2.995508 0 22
-33.093616 10.059758 -3.0320134 0 22
-33.04385 9.6024151 -3.0164077 0 22
-33.038765 9.1619387 -3.0054321 0 22
-33.073044 8.7349777 -2.9985533 0 22
-33.097618 8.3075047 -2.9912934 0 22
-33.625267 8.0017748 -3.0298595 0 22
-33.695934 7.5820646 -3.0275974 0 22
-33.742073 7.157733 -3.0236061 0 22
-33.804008 6.7376266 -3.0215037 0 22
-33.889015 6.3223591 -3.0219245 0 22
-33.982185 5.9083261 -3.0235255 0 22
-34.069927 5.4928985 -3.025094 0 22
-34.210133 5.0847588 -3.0317624 0 22
-33.880413 4.6107149 -2.9972908 0 22
-34.070614 4.2106047 -3.0093095 0 22
-34.212017 3.8016157 -3.017442 0 22
-34.406517 3.39551 -3.0306849 0 22
-34.169624 2.9483876 -3.0063972 0 22
-34.433659 2.5450578 -3.0266461 0 22
-34.242657 2.1079607 -3.0073516 0 22
-34.497372 1.6981593 -3.0276589 0 22
-34.369629 1.2684783 -3.0148511 0 22
-34.32283 0.84431809 -3.0096076 0 22
-34.242401 0.42115158 -3.0018742 0 22
-34.245953 9.0874717e-05 -3.0019586 0 22
-38.90712 -0.00010324353 -3.0499897 0 23
-39.061893 -0.48042712 -3.0623546 0 23
-39.250816 -0.96554327 -3.0778637 0 23
-38.9282 -1.4367211 -3.05372 0 23
-39.193886 -1.9293488 -3.0761902 0 23
-38.978111 -2.3994727 -3.0613391 0 23
-38.747669 -2.8639145 -3.0457759 0 23
-39.10062 -3.3738678 -3.0765483 0 23
-38.92326 -3.841258 -3.0660775 0 23
-38.76601 -4.307652 -3.057632 0 23
-38.650684 -4.7766309 -3.0529377 0 23
-38.525444 -5.2428474 -3.0479071 0 23
-38.454742 -5.7156482 -3.0476437 0 23
-38.34375 -6.181942 -3.0446413 0 23
-38.308254 -6.66048 -3.0480957 0 23
-38.258785 -7.1375866 -3.0509124 0 23
-38.246021 -7.6229839 -3.057138 0 23
-38.254787 -8.1150188 -3.0655835 0 23
-38.276119 -8.6126709 -3.0755472 0 23
-38.282318 -9.1100092 -3.0848131 0 23
-37.67873 -9.4573631 -3.0453162 0 23
-37.721867 -9.9627857 -3.0584729 0 23
-37.787758 -10.478877 -3.0740304 0 23
-37.191944 -10.807836 -3.0361426 0 23
-37.305573 -11.340105 -3.056571 0 23
-37.389385 -11.869707 -3.0751643 0 23
-36.833885 -12.193883 -3.0415781 0 23
-36.976059 -12.747518 -3.0660303 0 23
-36.378445 -13.044113 -3.0295475 0 23
-36.539845 -13.611311 -3.0566959 0 23
-36.720779 -14.195268 -3.0862005 0 23
-36.164608 -14.49386 -3.0542049 0 23
-36.329746 -15.081092 -3.0835793 0 23
-35.814285 -15.386043 -3.0556557 0 23
-35.302666 -15.683194 -3.0282295 0 23
-35.491058 -16.292303 -3.061343 0 23
-34.970646 -16.576994 -3.0338068 0 23
-35.173676 -17.206038 -3.0695426 0 23
-34.680481 -17.496471 -3.045048 0 23
-34.882641 -18.139929 -3.0821502 0 23
-34.385052 -18.421782 -3.0579681 0 23
-33.897747 -18.700727 -3.0348516 0 23
-34.148239 -19.390362 -3.0783923 0 23
-33.652805 -19.660124 -3.0552921 0 23
-33.155529 -19.920408 -3.0321546 0 23
-9.4360075 -5.8284044 -0.86943465 0 23
-9.1903105 -5.8339615 -0.8533414 0 23
-8.9518051 -5.8382068 -0.83779812 0 23
-8.7413101 -5.8553705 -0.82477409 0 23
-8.5129757 -5.855329 -0.80996209 0 23
-8.3026676 -5.8623519 -0.79675084 0 23
-8.1086149 -5.8760605 -0.78500342 0 23
-7.9004307 -5.874692 -0.77178395 0 23
-7.7194142 -5.8888559 -0.76111698 0 23
-7.5344663 -5.8957181 -0.74997282 0 23
-7.3357043 -5.8870354 -0.73733813 0 23
-7.178441 -5.907393 -0.72877723 0 23
-7.094039 -5.9857383 -0.72762591 0 23
-7.0987329 -6.1407003 -0.73579663 0 23
-7.111402 -6.3061833 -0.74509102 0 23
-7.1187005 -6.4707489 -0.75413531 0 23
-7.1263123 -6.6395073 -0.76353294 0 23
-7.1172771 -6.7964706 -0.77146077 0 23
-7.1388721 -6.986917 -0.78305483 0 23
-7.1466985 -7.1687298 -0.79352236 0 23
-7.1488662 -7.3494606 -0.80373663 0 23
-7.1656685 -7.5502939 -0.81600207 0 23
-7.1600022 -7.7325535 -0.82612216 0 23
-7.1641784 -7.9304724 -0.83779216 0 23
-7.1703606 -8.1362333 -0.85015047 0 23
-7.1895766 -8.3631344 -0.86455631 0 23
-7.1779437 -8.5603094 -0.87574905 0 23
-7.1951928 -8.7983809 -0.89098591 0 23
-7.2011085 -9.0299397 -0.90539968 0 23
-7.2166524 -9.2812815 -0.9216336 0 23
-7.2167578 -9.5207224 -0.93652737 0 23
-7.2359385 -9.7938805 -0.95457268 0 23
-7.2390866 -10.054498 -0.97122461 0 23
-7.2381744 -10.318461 -0.98805034 0 23
-7.2678318 -10.636561 -1.0098763 0 23
-7.2652526 -10.918615 -1.0280958 0 23
-7.2723136 -11.226107 -1.0485498 0 23
-7.2752018 -11.539056 -1.0693436 0 23
-7.3082571 -11.913706 -1.0956521 0 23
-19.734148 -33.075703 -3.019285 0 23
-19.318789 -33.303459 -3.0181627 0 23
-18.903887 -33.531456 -3.0175309 0 23
-18.486143 -33.754002 -3.0168738 0 23
-18.075943 -33.990444 -3.0179121 0 23
-17.663828 -34.224049 -3.01914 0 23
-17.243893 -34.443043 -3.0195255 0 23
-16.829441 -34.673782 -3.0213833 0 23
-16.416128 -34.908485 -3.0240164 0 23
-15.997004 -35.132584 -3.0261605 0 23
-15.581211 -35.366093 -3.0295417 0 23
-15.16477 -35.600971 -3.0334589 0 23
-14.745141 -35.831516 -3.0374246 0 23
-14.32814 -36.072247 -3.0426657 0 23
-13.901145 -36.291679 -3.0465262 0 23
-13.475254 -36.517815 -3.051369 0 23
-12.746798 -35.896641 -2.9861419 0 23
-12.329965 -36.125366 -2.9923303 0 23
-11.913351 -36.361225 -2.9995058 0 23
-11.48669 -36.572834 -3.0050833 0 23
-11.067669 -36.816189 -3.0136688 0 23
-10.640425 -37.040932 -3.021127 0 23
-10.213906 -37.277447 -3.0299449 0 23
-9.7848091 -37.515316 -3.0392697 0 23
-9.1325188 -36.8647 -2.9772379 0 23
-8.7089214 -37.103565 -2.9876544 0 23
-8.287303 -37.366776 -3.000416 0 23
-7.8520069 -37.584435 -3.0099132 0 23
-7.4210377 -37.840012 -3.0228441 0 23
-6.9817915 -38.07333 -3.0343955 0 23
-6.390976 -37.440666 -2.9774845 0 23
-5.9564185 -37.682671 -2.990679 0 23
-5.5176435 -37.924923 -3.0042937 0 23
-5.073276 -38.158051 -3.0175915 0 23
-4.6283197 -38.421772 -3.0337167 0 23
-4.0838118 -37.811527 -2.9813426 0 23
-3.6379831 -38.061779 -2.9973204 0 23
-3.1881568 -38.325291 -3.0147567 0 23
-2.7313595 -38.568798 -3.0310404 0 23
-2.2197599 -37.963779 -2.981123 0 23
-1.7637146 -38.224606 -2.9996746 0 23
-1.3019493 -38.490562 -3.0190609 0 23
-0.81593966 -37.915882 -2.9729731 0 23
-0.35220054 -38.196217 -2.9943881 0 23
0.11821275 -38.43943 -3.0133412 0 23
0.5826053 -37.899555 -2.9713564 0 23
1.056106 -38.162319 -2.992749 0 23
1.5361094 -38.417976 -3.0140514 0 23
1.9828397 -37.908226 -2.9757473 0 23
2.4685833 -38.187134 -2.9997976 0 23
2.9006946 -37.670357 -2.9617798 0 23
3.391156 -37.939545 -2.985997 0 23
3.8931861 -38.24667 -3.0137091 0 23
4.3144908 -37.769894 -2.9800956 0 23
4.8232164 -38.066387 -3.0079417 0 23
5.2333059 -37.590519 -2.9751995 0 23
5.7534165 -37.90752 -3.0056615 0 23
6.1622281 -37.488083 -2.9781876 0 23
6.682981 -37.749996 -3.005296 0 23
7.093195 -37.383339 -2.9828246 0 23
7.6308312 -37.681053 -3.0138383 0 23
8.0319576 -37.298298 -2.9908979 0 23
8.4282494 -36.92638 -2.9691603 0 23
8.9826756 -37.238804 -3.0029361 0 23
9.3803577 -36.891499 -2.9840052 0 23
9.7789631 -36.570358 -2.9675314 0 23
10.358199 -36.911766 -3.0053434 0 23
10.757595 -36.599018 -2.9904239 0 23
11.158804 -36.307858 -2.9776201 0 23
11.56959 -36.05946 -2.9686916 0 23
11.9838 -35.82991 -2.9617012 0 23
12.392251 -35.590275 -2.9542654 0 23
13.012728 -35.942928 -2.9965937 0 23
13.429368 -35.715549 -2.9911783 0 23
13.8696 -35.553127 -2.9916325 0 23
14.30715 -35.383499 -2.9919364 0 23
14.738877 -35.199535 -2.9914796 0 23
14.972949 -34.559536 -2.9525127 0 23
15.435472 -34.459278 -2.9599388 0 23
15.908613 -34.376255 -2.9693859 0 23
16.381697 -34.286072 -2.9787705 0 23
16.639641 -33.752674 -2.9499824 0 23
17.138824 -33.713585 -2.964761 0 23
17.647617 -33.682693 -2.9809024 0 23
17.947731 -33.254349 -2.9623015 0 23
18.496094 -33.284603 -2.9850311 0 23
18.81621 -32.901253 -2.9711766 0 23
19.077015 -32.425522 -2.9491765 0 23
19.560476 -32.331009 -2.9622328 0 23
20.064016 -32.260895 -2.9781883 0 23
20.328489 -31.807295 -2.959166 0 23
20.874723 -31.793577 -2.981545 0 23
21.144726 -31.357529 -2.964812 0 23
21.43001 -30.952652 -2.9512231 0 23
21.724644 -30.568163 -2.9398117 0 23
22.35494 -30.649847 -2.9738791 0 23
22.683762 -30.310736 -2.9678156 0 23
23.031301 -29.999012 -2.9647992 0 23
23.367579 -29.674404 -2.960892 0 23
23.725384 -29.378292 -2.9602315 0 23
24.077169 -29.075125 -2.9592922 0 23
24.475811 -28.827494 -2.9644966 0 23
24.863222 -28.564363 -2.968653 0 23
25.245434 -28.293344 -2.9725242 0 23
25.258217 -27.616499 -2.9338229 0 23
25.668394 -27.381216 -2.942136 0 23
26.105032 -27.169605 -2.9536669 0 23
26.536888 -26.947886 -2.9648128 0 23
26.534513 -26.290903 -2.9282076 0 23
26.994274 -26.096558 -2.9433093 0 23
27.469986 -25.91065 -2.9602151 0 23
27.483597 -25.292187 -2.9279461 0 23
27.958117 -25.101042 -2.9453938 0 23
28.477943 -24.942209 -2.9676223 0 23
28.490608 -24.340822 -2.9375298 0 23
29.002169 -24.16736 -2.9594109 0 23
29.003489 -23.570303 -2.9297493 0 23
29.564621 -23.428658 -2.9571066 0 23
29.550261 -22.831434 -2.9273684 0 23
30.134315 -22.696516 -2.9573562 0 23
30.116871 -22.108292 -2.9287431 0 23
30.701368 -21.961603 -2.9590981 0 23
30.733324 -21.418156 -2.9365718 0 23
31.34557 -21.27706 -2.9698484 0 23
31.32567 -20.705532 -2.9436178 0 23
31.346203 -20.169724 -2.9220209 0 23
31.980661 -20.026266 -2.9579847 0 23
31.98967 -19.488485 -2.9364312 0 23
7.3749609 -4.3694949 -0.67198777 0 23
7.4308758 -4.2800674 -0.67223626 0 23
32.641384 -18.270151 -2.9323666 0 23
33.340439 -18.126699 -2.9749179 0 23
33.356796 -17.607706 -2.9568348 0 23
33.337891 -17.076946 -2.9363232 0 23
33.341194 -16.564325 -2.9184539 0 23
34.070538 -16.40749 -2.964411 0 23
34.061611 -15.890257 -2.9464109 0 23
34.086746 -15.394526 -2.9319885 0 23
34.080833 -14.89009 -2.9155107 0 23
34.824982 -14.707971 -2.9634743 0 23
34.827339 -14.206932 -2.9485862 0 23
34.822151 -13.707868 -2.9336545 0 23
34.833256 -13.219921 -2.9206743 0 23
35.629875 -13.023355 -2.9738164 0 23
35.619095 -12.52513 -2.9598382 0 23
35.628487 -12.038277 -2.9480951 0 23
35.633598 -11.553832 -2.9365404 0 23
35.624912 -11.068824 -2.9243867 0 23
35.627674 -10.591124 -2.9137027 0 23
36.455055 -10.350975 -2.9707336 0 23
36.469364 -9.8721256 -2.9617834 0 23
36.441628 -9.3852739 -2.9499354 0 23
36.453041 -8.911747 -2.9417663 0 23
36.443115 -8.4358397 -2.9323726 0 23
36.457375 -7.968163 -2.9254148 0 23
36.469849 -7.5022759 -2.9187925 0 23
36.467484 -7.0355716 -2.9114592 0 23
36.454773 -6.5692697 -2.9037759 0 23
37.347374 -6.2570143 -2.9685223 0 23
37.317604 -5.7812419 -2.9602821 0 23
37.321644 -5.3128223 -2.9551966 0 23
37.320667 -4.8452897 -2.9501786 0 23
37.336937 -4.3812947 -2.9469833 0 23
37.347675 -3.9176574 -2.9438059 0 23
37.329891 -3.4523129 -2.9388359 0 23
37.315456 -2.9887307 -2.9345844 0 23
37.336384 -2.5288107 -2.9335632 0 23
37.311684 -2.0666146 -2.9294043 0 23
37.327419 -1.6073959 -2.9288666 0 23
37.333824 -1.1479895 -2.92804 0 23
37.333153 -0.68864244 -2.9271019 0 23
37.317692 -0.22942929 -2.9254475 0 23
37.313675 0.2294046 -2.9251325 0 23
37.340267 0.68877369 -2.9276597 0 23
37.325222 1.147725 -2.9273653 0 23
37.327942 1.6074183 -2.9289074 0 23
37.337006 2.068017 -2.9313922 0 23
37.350231 2.5297487 -2.9346511 0 23
37.331413 2.9900091 -2.9358394 0 23
37.333736 3.4526684 -2.9391387 0 23
37.358826 3.9188271 -2.9446847 0 23
37.338646 4.3814955 -2.9471183 0 23
37.32283 4.8455706 -2.9503498 0 23
37.342045 5.3157268 -2.9568121 0 23
37.31424 5.7807207 -2.9600153 0 23
37.340153 6.2558045 -2.9679484 0 23
36.465183 6.5711465 -2.9046054 0 23
36.473671 7.0367656 -2.9119534 0 23
36.458389 7.4999189 -2.9178755 0 23
36.466644 7.9701891 -2.9261587 0 23
36.445274 8.4363394 -2.9325461 0 23
36.460735 8.9136286 -2.9423873 0 23
36.47197 9.3930883 -2.9523916 0 23
36.481003 9.8752756 -2.9627287 0 23
36.460796 10.352605 -2.9712014 0 23
35.623547 10.589896 -2.9133651 0 23
35.63908 11.073226 -2.92555 0 23
35.626881 11.551654 -2.9359868 0 23
35.624012 12.036764 -2.9477248 0 23
35.611633 12.522508 -2.9592183 0 23
35.63747 13.026133 -2.9744503 0 23
34.852329 13.22716 -2.9222736 0 23
34.833786 13.712448 -2.9346347 0 23
34.844173 14.2138 -2.9500115 0 23
34.838493 14.713677 -2.9646242 0 23
34.077671 14.888709 -2.91524 0 23
34.081238 15.392037 -2.9315147 0 23
34.074734 15.896379 -2.9475458 0 23
34.075031 16.409655 -2.964802 0 23
33.360065 16.5737 -2.9201057 0 23
33.339523 17.077784 -2.9364672 0 23
33.350658 17.604465 -2.9562907 0 23
33.341576 18.127317 -2.9750195 0 23
32.646435 18.272978 -2.9328203 0 23
32.669441 18.817085 -2.9554503 0 23
32.652882 19.346083 -2.9752479 0 23
31.991575 19.489647 -2.9366059 0 23
20.376637 12.759835 -1.8846947 0 23
20.143118 12.961096 -1.8776951 0 23
20.171005 13.332561 -1.8954337 0 23
31.341934 21.274591 -2.9695039 0 23
30.732067 21.41728 -2.9364517 0 23
30.724525 21.978168 -2.9613302 0 23
30.128574 22.116882 -2.9298813 0 23
30.143133 22.703157 -2.9582214 0 23
29.563713 22.841827 -2.9287009 0 23
29.579088 23.440121 -2.9585536 0 23
29.017273 23.581505 -2.9311416 0 23
29.01679 24.179544 -2.9609027 0 23
28.48571 24.336637 -2.9370251 0 23
28.474998 24.939631 -2.9673154 0 23
27.969852 25.111578 -2.9466302 0 23
27.499048 25.306408 -2.9295921 0 23
27.474581 25.914984 -2.9607103 0 23
27.010788 26.112522 -2.9451101 0 23
26.541737 26.298059 -2.9290047 0 23
26.554668 26.965942 -2.9667995 0 23
26.121792 27.18705 -2.9555631 0 23
25.677164 27.39057 -2.9431412 0 23
25.270813 27.630272 -2.935286 0 23
25.259953 28.309616 -2.9742336 0 23
24.867613 28.569408 -2.9691772 0 23
24.478422 28.830568 -2.9648128 0 23
24.091372 29.092276 -2.9610379 0 23
23.745911 29.403711 -2.9627929 0 23
23.368868 29.676044 -2.9610555 0 23
23.041668 30.012518 -2.9661336 0 23
22.683422 30.310282 -2.9677711 0 23
22.366697 30.665966 -2.9754431 0 23
21.747591 30.600454 -2.9429171 0 23
21.449041 30.980141 -2.9538441 0 23
21.154003 31.371286 -2.9661129 0 23
20.878265 31.798971 -2.9820509 0 23
7.3083038 11.435054 -1.063851 0 23
20.071138 32.272346 -2.9792452 0 23
19.581228 32.365311 -2.9653754 0 23
19.091789 32.450634 -2.9514604 0 23
18.832926 32.930481 -2.9738164 0 23
18.500967 33.293373 -2.9858174 0 23
17.964716 33.285816 -2.9651048 0 23
17.664488 33.714893 -2.9837523 0 23
17.147734 33.73111 -2.9663024 0 23
16.651815 33.777367 -2.9521406 0 23
16.391386 34.306351 -2.9805324 0 23
15.916124 34.392487 -2.970788 0 23
15.444221 34.478813 -2.9616165 0 23
14.982668 34.58197 -2.9544291 0 23
14.750719 35.227814 -2.9938829 0 23
14.316008 35.405403 -2.9937885 0 23
13.875464 35.568157 -2.9928973 0 23
13.438384 35.739529 -2.9931865 0 23
13.021321 35.966663 -2.9985726 0 23
12.396726 35.603127 -2.955332 0 23
11.988144 35.842899 -2.9627748 0 23
11.577435 36.083912 -2.9707046 0 23
11.164403 36.326077 -2.9791141 0 23
10.765676 36.626511 -2.9926701 0 23
10.362488 36.927048 -3.0065877 0 23
9.7869501 36.600227 -2.9699552 0 23
9.3876476 36.92017 -2.9863243 0 23
8.9881973 37.261696 -3.004782 0 23
8.4318752 36.942268 -2.9704378 0 23
8.0367041 37.320339 -2.9926653 0 23
7.6297245 37.675587 -3.013401 0 23
7.0946717 37.391125 -2.9834456 0 23
0.18059967 1.0201491 -0.081214584 0 23
0.16172591 0.98386395 -0.078161679 0 23
0.14827879 0.97696406 -0.077462815 0 23
0.13557029 0.97379315 -0.077073395 0 23
0.12057978 0.95165461 -0.075198144 0 23
0.10946344 0.95826423 -0.07560835 0 23
0.096810438 0.95106602 -0.074940808 0 23
0.19738188 2.2082672 -0.17379965 0 23
0.17214458 2.2355845 -0.17576975 0 23
0.14724532 2.2777748 -0.17893103 0 23
1.9836013 37.922787 -2.9768903 0 23
1.5375758 38.454651 -3.0169289 0 23
1.057128 38.199242 -2.9956448 0 23
0.58302039 37.926559 -2.9734733 0 23
0.11827546 38.45982 -3.0149395 0 23
-0.35242265 38.220303 -2.9962766 0 23
-0.81664521 37.948666 -2.975544 0 23
-1.3029358 38.51973 -3.0213485 0 23
-0.11782425 2.5535796 -0.20039205 0 23
-0.13287345 2.2724884 -0.17844816 0 23
-0.1593475 2.2501037 -0.17683089 0 23
-0.18740171 2.2527828 -0.17720914 0 23
-0.24286424 2.540926 -0.20009494 0 23
-0.10386015 0.96162885 -0.075821981 0 23
-0.11633942 0.96578598 -0.076256797 0 23
-0.12709245 0.95591098 -0.07559476 0 23
-0.14044128 0.96530789 -0.076468669 0 23
-0.15339211 0.97041941 -0.077017181 0 23
-0.16562195 0.97027379 -0.077161424 0 23
-0.17701727 0.9653163 -0.076934464 0 23
-7.4254951 37.86274 -3.0246599 0 23
-7.8588724 37.617298 -3.0125449 0 23
-8.2887049 37.373096 -3.0009239 0 23
-8.7212057 37.155903 -2.9918687 0 23
-9.1406269 36.89743 -2.979881 0 23
-9.7912788 37.540123 -3.0412793 0 23
-10.21997 37.299576 -3.0317435 0 23
-10.650258 37.075165 -3.0239191 0 23
-11.072845 36.833412 -3.0150785 0 23
-11.488396 36.57827 -3.0055299 0 23
-11.919793 36.380886 -3.0011277 0 23
-12.332788 36.133636 -2.9930153 0 23
-12.753345 35.915077 -2.9876757 0 23
-13.48735 36.550594 -3.0541081 0 23
-13.910261 36.315479 -3.0485241 0 23
-14.335277 36.090214 -3.0441811 0 23
-14.756751 35.85973 -3.0398161 0 23
-15.172972 35.620224 -3.0350995 0 23
-15.589842 35.385681 -3.03122 0 23
-16.00806 35.156868 -3.0282521 0 23
-16.427334 34.932308 -3.0260804 0 23
-0.96716958 1.9926645 -0.1736356 0 23
-0.96765929 1.9328079 -0.16944388 0 23
-0.97405678 1.8872559 -0.1664879 0 23
-1.2079976 2.271548 -0.20168412 0 23
-1.2388008 2.2619364 -0.20216793 0 23
-1.282113 2.2741945 -0.20465714 0 23
-1.3084294 2.2555876 -0.20441511 0 23
-1.3106821 2.1967874 -0.20053171 0 23
-1.3143905 2.1426806 -0.1970531 0 23
-1.3152635 2.0861139 -0.19332366 0 23
-1.3152375 2.0303025 -0.18963593 0 23
-1.3215981 1.9861691 -0.1870175 0 23
-1.3134772 1.9222898 -0.18250963 0 23
-1.3061371 1.8619784 -0.17829484 0 23
-1.3171197 1.8293713 -0.17671001 0 23
-1.3082159 1.7706771 -0.17258123 0 23
-1.3109598 1.7294865 -0.17012484 0 23
-1.3155196 1.6918797 -0.16800408 0 23
-1.326365 1.6632156 -0.16676466 0 23
-1.3436253 1.6430035 -0.16638207 0 23
-1.3442445 1.603126 -0.16400531 0 23
-1.3607185 1.5828291 -0.16362824 0 23
-25.453167 28.881802 -3.017843 0 23
-25.875097 28.642746 -3.0258813 0 23
-26.296633 28.399448 -3.0341096 0 23
-26.717834 28.151945 -3.0425367 0 23
-27.159636 27.921724 -3.0535183 0 23
-27.596596 27.681669 -3.0641444 0 23
-28.03302 27.436321 -3.0749102 0 23
-27.805941 26.552607 -3.0139606 0 23
-1.0445864 0.97322977 -0.11191989 0 23
-1.0734525 0.97574568 -0.11371857 0 23
-1.092539 0.96883166 -0.11446983 0 23
-1.1198057 0.96867877 -0.11606991 0 23
-1.1524823 0.97243011 -0.11820854 0 23
-1.174785 0.9667722 -0.11926777 0 23
-1.190753 0.9556008 -0.11968688 0 23
-1.2175369 0.95272243 -0.12119234 0 23
-1.2378243 0.94429046 -0.12204672 0 23
-1.2704799 0.94471782 -0.12411171 0 23
-1.3112583 0.95022798 -0.12694427 0 23
-1.341378 0.94712085 -0.12872297 0 23
-32.245152 22.178612 -3.0679464 0 23
-1.513186 1.0136083 -0.14277455 0 23
-32.462738 21.171618 -3.038183 0 23
-32.913589 20.893377 -3.0561023 0 23
-33.426495 20.646774 -3.0799203 0 23
-33.173035 19.930927 -3.0337555 0 23
-33.652061 19.659689 -3.0552247 0 23
-34.1586 19.396244 -3.0793262 0 23
-33.908478 18.706648 -3.0358124 0 23
-34.39225 18.42564 -3.0586083 0 23
-1.3631289 0.70886439 -0.12044294 0 23
-34.676514 17.494469 -3.0446994 0 23
-35.179188 17.208735 -3.0700238 0 23
-34.976906 16.57996 -3.0343497 0 23
-35.492691 16.293051 -3.0614836 0 23
-35.308071 15.685596 -3.0286932 0 23
-35.815773 15.386682 -3.0557826 0 23
-36.338593 15.084764 -3.0843303 0 23
-36.177158 14.49889 -3.0552647 0 23
-36.704117 14.188827 -3.0848 0 23
-36.550266 13.615192 -3.0575676 0 23
-36.400551 13.052039 -3.0313885 0 23
-36.950874 12.738835 -3.063942 0 23
-36.841396 12.196371 -3.0421987 0 23
-37.395363 11.871604 -3.0756557 0 23
-37.29826 11.337881 -3.0559716 0 23
-37.192017 10.807857 -3.0361485 0 23
-37.781704 10.477198 -3.0735378 0 23
-37.732273 9.9655342 -3.0593166 0 23
-37.694439 9.4613066 -3.046586 0 23
-38.290066 9.1118526 -3.0854373 0 23
-38.257774 8.6085424 -3.0740731 0 23
-38.262104 8.1165714 -3.06617 0 23
-38.258385 7.6254482 -3.0581264 0 23
-38.253651 7.1366286 -3.0505028 0 23
-38.335293 6.6651812 -3.0502472 0 23
-38.361526 6.1848078 -3.0460529 0 23
-38.430149 5.7119927 -3.0456946 0 23
-38.540936 5.2449555 -3.0491326 0 23
-38.653385 4.7769647 -3.0531511 0 23
-38.772968 4.3084254 -3.0581808 0 23
-38.923489 3.8412807 -3.0660956 0 23
-39.102524 3.374032 -3.0766978 0 23
-38.751751 2.8642161 -3.0460968 0 23
-38.965736 2.3987112 -3.0603673 0 23
-39.208042 1.9300457 -3.0773013 0 23
-38.951145 1.4375679 -3.0555198 0 23
-39.244701 0.96539283 -3.0773842 0 23
-39.054489 0.48033604 -3.061774 0 23
-39.063217 0.00010365775 -3.0622265 0 23
-45.0923 -0.00011965647 -3.117578 0 24
-45.433674 -0.55879444 -3.1414175 0 24
-45.167854 -1.1110983 -3.1237464 0 24
-44.897087 -1.6570146 -3.1061947 0 24
-45.397701 -2.2347364 -3.1424932 0 24
-45.221794 -2.7838309 -3.1324494 0 24
-45.069122 -3.331145 -3.1244752 0 24
-44.93774 -3.8775342 -3.1184368 0 24
-44.812069 -4.4224129 -3.1132541 0 24
-44.743076 -4.9718194 -3.112473 0 24
-44.691921 -5.5232348 -3.1134036 0 24
-44.656124 -6.0771589 -3.11588 0 24
-44.651428 -6.6366811 -3.1210108 0 24
-44.659603 -7.200211 -3.1275342 0 24
-44.739441 -7.7786412 -3.1395864 0 24
-44.790195 -8.3560915 -3.1501203 0 24
-44.042572 -8.7783203 -3.1048965 0 24
-44.164467 -9.3686438 -3.1213753 0 24
-44.296715 -9.967391 -3.139147 0 24
-43.56139 -10.366265 -3.0958364 0 24
-43.723991 -10.974725 -3.1167471 0 24
-43.914227 -11.598261 -3.1402364 0 24
-43.191212 -11.977301 -3.0988319 0 24
-43.405506 -12.613473 -3.1250989 0 24
-43.666592 -13.273719 -3.1554093 0 24
-42.988667 -13.647264 -3.1183121 0 24
-43.250496 -14.318107 -3.1498377 0 24
-42.592743 -14.683873 -3.1148496 0 24
-42.877182 -15.374346 -3.1492381 0 24
-42.232117 -15.731716 -3.1158319 0 24
-42.561691 -16.453207 -3.1548357 0 24
-41.9282 -16.803761 -3.1229587 0 24
-41.294224 -17.14193 -3.0912044 0 24
-41.638161 -17.888018 -3.1331799 0 24
-41.044174 -18.233856 -3.1051202 0 24
-41.399307 -19.004505 -3.1494281 0 24
-40.798641 -19.339615 -3.1215882 0 24
-40.177113 -19.653587 -3.0922904 0 24
-40.594486 -20.480116 -3.1435595 0 24
-39.989174 -20.795465 -3.1162515 0 24
-39.406433 -21.111986 -3.0908365 0 24
-39.786274 -21.949314 -3.1415613 0 24
-39.262798 -22.294558 -3.1216378 0 24
-38.683701 -22.599197 -3.097456 0 24
-39.084793 -23.482813 -3.1524544 0 24
-9.4363794 -5.8286343 -0.76683104 0 24
-9.1828661 -5.829236 -0.75199777 0 24
-8.9682455 -5.8489289 -0.74025589 0 24
-8.734376 -5.8507257 -0.72683525 0 24
-8.5152893 -5.8569207 -0.71454298 0 24
-8.3038177 -5.8631644 -0.70279449 0 24
-8.1183567 -5.8831196 -0.69316816 0 24
-7.9123974 -5.8835897 -0.68170846 0 24
-7.7162218 -5.8864207 -0.67099208 0 24
-7.5320702 -5.8938432 -0.66123068 0 24
-7.3415794 -5.8917503 -0.65081865 0 24
-7.1797743 -5.9084907 -0.64286697 0 24
-7.1044297 -5.9945059 -0.64267212 0 24
-7.0950637 -6.1375265 -0.6486029 0 24
-7.1156178 -6.3099222 -0.65752512 0 24
-7.1178737 -6.4699969 -0.66503495 0 24
-7.1250596 -6.63834 -0.67328209 0 24
-7.1326046 -6.8111072 -0.68185771 0 24
-7.1317239 -6.9799209 -0.68992633 0 24
-7.1467443 -7.1687756 -0.6998542 0 24
-7.1515269 -7.3521962 -0.70912212 0 24
-7.1588292 -7.5430875 -0.7189889 0 24
-7.1556377 -7.7278399 -0.7281571 0 24
-7.1828656 -7.951158 -0.74082094 0 24
-7.1710582 -8.1370258 -0.74986607 0 24
-7.1817684 -8.3540516 -0.76167029 0 24
-7.1921463 -8.5772476 -0.77389812 0 24
-7.2001076 -8.8043909 -0.78634477 0 24
-7.2009659 -9.0297604 -0.79850447 0 24
-7.2112741 -9.2743645 -0.81223208 0 24
-7.2152405 -9.5187206 -0.82579982 0 24
-7.2348008 -9.7923412 -0.84175622 0 24
-7.2439752 -10.061287 -0.8571533 0 24
-7.2439537 -10.3267 -0.87211007 0 24
-7.261723 -10.62762 -0.88991511 0 24
-7.2729645 -10.930204 -0.90769506 0 24
-7.2762961 -11.232254 -0.92527848 0 24
-7.2842441 -11.553397 -0.94428337 0 24
-7.3014836 -11.902663 -0.96541846 0 24
-23.165485 -38.826843 -3.1258833 0 24
-22.67061 -39.081627 -3.1237164 0 24
-22.182199 -39.346481 -3.122848 0 24
-21.695124 -39.613304 -3.1226158 0 24
-21.206875 -39.877926 -3.1226835 0 24
-20.724701 -40.154552 -3.1241531 0 24
-20.228399 -40.404316 -3.1239967 0 24
-19.742826 -40.676247 -3.1260152 0 24
-18.721485 -39.810764 -3.0415804 0 24
-18.247007 -40.074036 -3.044322 0 24
-17.770548 -40.33543 -3.0473492 0 24
-17.288721 -40.587177 -3.050077 0 24
-16.813248 -40.857132 -3.0545959 0 24
-16.332937 -41.119484 -3.0589638 0 24
-15.856736 -41.397137 -3.0648823 0 24
-15.365918 -41.641495 -3.0687528 0 24
-14.884753 -41.9174 -3.0753646 0 24
-14.401287 -42.194099 -3.0824401 0 24
-13.918077 -42.479931 -3.0905845 0 24
-13.415622 -42.714424 -3.0954094 0 24
-12.924048 -42.991367 -3.1037276 0 24
-12.431018 -43.274258 -3.1128798 0 24
-11.603115 -42.347607 -3.0357294 0 24
-11.115624 -42.61771 -3.0450637 0 24
-10.628335 -42.902775 -3.0558627 0 24
-10.131564 -43.164608 -3.065407 0 24
-9.6347904 -43.442486 -3.0764947 0 24
-9.1340036 -43.720844 -3.0880201 0 24
-8.6235266 -43.971519 -3.0980017 0 24
-7.9025779 -43.094593 -3.0291426 0 24
-7.4030337 -43.369671 -3.0418494 0 24
-6.9020495 -43.665108 -3.0563867 0 24
-6.3938713 -43.947575 -3.0704231 0 24
-5.8768506 -44.202045 -3.0829198 0 24
-5.3609567 -44.503719 -3.0991287 0 24
-4.7141943 -43.648163 -3.0352836 0 24
-4.1984425 -43.925488 -3.0507481 0 24
-3.6771533 -44.203587 -3.0666907 0 24
-3.1516249 -44.503258 -3.0845587 0 24
-2.5547347 -43.692741 -3.025975 0 24
-2.0284595 -43.962364 -3.0426908 0 24
-1.4975345 -44.272804 -3.0626705 0 24
-0.95869404 -44.54953 -3.0807652 0 24
-0.40364397 -43.775265 -3.02665 0 24
0.13549212 -44.058189 -3.0460963 0 24
0.68197048 -44.363445 -3.067549 0 24
1.2069042 -43.611397 -3.0163462 0 24
1.7559844 -43.917034 -3.038749 0 24
2.3127618 -44.215725 -3.0611527 0 24
2.8121011 -43.501099 -3.0138438 0 24
3.374002 -43.817039 -3.0383775 0 24
3.9431045 -44.114628 -3.0621436 0 24
4.4218593 -43.440357 -3.0188861 0 24
4.9986362 -43.759037 -3.045074 0 24
5.5895767 -44.11475 -3.0743775 0 24
6.0475287 -43.43903 -3.0322394 0 24
6.6442289 -43.776814 -3.06129 0 24
7.0934634 -43.153278 -3.0235574 0 24
7.6956706 -43.470352 -3.0521731 0 24
8.1423817 -42.912884 -3.0198331 0 24
8.7629471 -43.271439 -3.0524173 0 24
9.1963787 -42.705563 -3.0202482 0 24
9.8262672 -43.051464 -3.0530257 0 24
10.260621 -42.536686 -3.0252388 0 24
10.905394 -42.889233 -3.0596178 0 24
11.335802 -42.392464 -3.0338941 0 24
11.772002 -41.949898 -3.0123527 0 24
12.436113 -42.309597 -3.0489328 0 24
12.865067 -41.8596 -3.0276756 0 24
13.30479 -41.467636 -3.010931 0 24
