# .PCD v0.7 - Point Cloud Data file format
VERSION 0.7
FIELDS x y z intensity ring
SIZE 4 4 4 4 2
TYPE F F F F U
COUNT 1 1 1 1 1
WIDTH 1241
HEIGHT 1
VIEWPOINT 0 0 0 1 0 0 0
POINTS 1241
DATA ascii
-0.12552145 0.94409496 0.15473914 0 49
-0.13887076 0.95451301 0.15671471 0 49
-0.1489559 0.9423542 0.15500745 0 49
-0.16068156 0.94133115 0.15515244 0 49
-0.17174785 0.93658096 0.1547059 0 49
-0.18727565 0.95492202 0.15810393 0 49
-0.197991 0.9477042 0.1573001 0 49
-0.20612328 0.92939311 0.15466982 0 49
-0.22233108 0.94722134 0.15807982 0 49
-0.23519969 0.9494167 0.15891685 0 49
-0.24577621 0.94231498 0.15822203 0 49
-0.25583705 0.93372226 0.15729557 0 49
-0.26792717 0.93269509 0.15766563 0 49
-0.28373748 0.94384229 0.16012765 0 49
-0.2918106 0.9291051 0.15822423 0 49
-0.30786383 0.93964368 0.16065146 0 49
-0.31782979 0.93120444 0.15986469 0 49
-0.32941461 0.92767441 0.15994197 0 49
-0.34111395 0.92441571 0.16009122 0 49
-0.3557134 0.92865998 0.16157153 0 49
-0.36744198 0.9250648 0.1617199 0 49
-0.37804139 0.91866171 0.16140097 0 49
-0.39221856 0.92077631 0.16260754 0 49
-0.40759394 0.92515302 0.16425315 0 49
-0.42187747 0.92652631 0.16540547 0 49
-0.44079614 0.93734187 0.1682912 0 49
-0.45693707 0.94142985 0.17002109 0 49
-0.46940473 0.93759155 0.17035745 0 49
-0.48216072 0.93419671 0.17080496 0 49
-0.50240296 0.94473082 0.17384735 0 49
-0.50317514 0.9187516 0.17019242 0 49
-0.52532327 0.93181121 0.17379509 0 49
-0.53783303 0.92716479 0.1741488 0 49
-0.5489555 0.92008471 0.17407367 0 49
-0.56454724 0.92030823 0.17541607 0 49
-0.58443052 0.92695385 0.17803909 0 49
-0.60459691 0.93330264 0.18067275 0 49
-0.6198225 0.93150282 0.18178602 0 49
-0.6319561 0.92487544 0.18199541 0 49
-0.64822018 0.92407763 0.18339303 0 49
-0.66894209 0.92910564 0.1860093 0 49
-0.69177192 0.93631691 0.18914171 0 49
-0.70588577 0.93124127 0.18985543 0 49
-0.72310209 0.92997605 0.19139579 0 49
-0.7457462 0.93513978 0.19433108 0 49
-0.76179183 0.93152952 0.1955127 0 49
-0.77542526 0.9247607 0.19607843 0 49
-0.79473114 0.92445552 0.19807081 0 49
-0.8234098 0.93432605 0.20233969 0 49
-0.83755016 0.92713612 0.20299764 0 49
-0.85991085 0.9286738 0.20563394 0 49
-0.88127929 0.92858297 0.20799762 0 49
-0.90141314 0.92670649 0.21004422 0 49
-0.91858131 0.921413 0.21138859 0 49
-0.9570049 0.93663442 0.21756396 0 49
-0.97336626 0.92949235 0.21866864 0 49
-0.98957223 0.92197365 0.21974584 0 49
-1.0163893 0.9238764 0.22316128 0 49
-1.049646 0.93079537 0.22793299 0 49
-1.0792406 0.93358815 0.23184912 0 49
-1.0985532 0.92692643 0.23353176 0 49
-1.1304533 0.9302901 0.23786338 0 49
-1.1537474 0.9259032 0.24035096 0 49
-1.1916864 0.9324944 0.24584721 0 49
-1.2175 0.9287858 0.24879766 0 49
-1.2762452 0.94900489 0.25839812 0 49
-1.3070241 0.94715959 0.26225194 0 49
-1.3452699 0.94986892 0.26756209 0 49
-1.5191578 1.0176085 0.29707876 0 49
-1.3304919 0.75549191 0.24858682 0 49
-1.3474853 0.74338144 0.25003505 0 49
0.15835385 1.0433456 0.1814404 0 50
0.13921094 0.99994373 0.1735819 0 50
0.12284134 0.96950358 0.16802283 0 50
0.10841733 0.94910645 0.16424437 0 50
0.095625661 0.93942678 0.16235353 0 50
0.082921974 0.92771369 0.16014093 0 50
0.070805058 0.91952175 0.15856458 0 50
0.059247747 0.91651833 0.15790908 0 50
0.048768055 0.93235493 0.16052215 0 50
0.037103593 0.92795801 0.15967453 0 50
0.025811277 0.93268871 0.1604218 0 50
0.014321446 0.93163669 0.16019845 0 50
0.0028781898 0.93590552 0.16091424 0 50
-0.0087434752 0.94823152 0.16303967 0 50
-0.020233437 0.94022715 0.16169395 0 50
-0.031244159 0.92369592 0.15890507 0 50
-0.043346401 0.93943721 0.16169254 0 50
-0.05507854 0.94198912 0.16223606 0 50
-0.065670505 0.92731565 0.15983589 0 50
-0.078252353 0.94068277 0.16229349 0 50
-0.090391114 0.94570166 0.1633388 0 50
-0.099962458 0.92554045 0.16005681 0 50
-0.1124393 0.93340939 0.1616445 0 50
-0.12592961 0.94716483 0.16428235 0 50
-0.13567281 0.93253219 0.16202149 0 50
-0.145484 0.92038959 0.16021049 0 50
-0.15714858 0.92063373 0.16057722 0 50
-0.17083085 0.93158031 0.1628406 0 50
-0.18332595 0.93478245 0.163782 0 50
-0.19114262 0.91492379 0.16070224 0 50
-0.20251477 0.91312259 0.16081113 0 50
-0.21753785 0.92680019 0.16367862 0 50
-0.22965232 0.92702395 0.16420443 0 50
-0.2429605 0.93151945 0.1655174 0 50
-0.25451323 0.92889076 0.16559389 0 50
-0.26751935 0.93127549 0.16659285 0 50
-0.27744341 0.92290521 0.16569328 0 50
-0.29335099 0.93400961 0.16832179 0 50
-0.30141562 0.91996282 0.16644572 0 50
-0.3208904 0.94017166 0.17080303 0 50
-0.33166978 0.93402523 0.17041442 0 50
-0.34563377 0.93666434 0.1716584 0 50
-0.35308573 0.9217999 0.1697171 0 50
-0.37560299 0.94561076 0.17493817 0 50
-0.38470665 0.93485862 0.17381103 0 50
-0.39208603 0.92046517 0.17201835 0 50
-0.40773255 0.92546761 0.17387703 0 50
-0.42356101 0.9302237 0.17573586 0 50
-0.43761638 0.9305802 0.17680643 0 50
-0.4502334 0.92761815 0.17728212 0 50
-0.46556085 0.92991376 0.17880142 0 50
-0.47758329 0.9253279 0.17903529 0 50
-0.49195501 0.92508423 0.18014497 0 50
-0.5095731 0.93043369 0.1823931 0 50
-0.52507025 0.93136239 0.18382692 0 50
-0.53852856 0.9283638 0.18452814 0 50
-0.55439019 0.92919368 0.18603402 0 50
-0.56960016 0.92854542 0.18729237 0 50
-0.58658117 0.93036503 0.18909997 0 50
-0.60820597 0.93887389 0.19233498 0 50
-0.62010407 0.93192595 0.19245915 0 50
-0.63902348 0.93521863 0.19474719 0 50
-0.64493281 0.91939121 0.19308814 0 50
-0.66898155 0.92916048 0.19685259 0 50
-0.68934357 0.93303019 0.19945319 0 50
-0.69782561 0.92060786 0.19861698 0 50
-0.72308934 0.92995971 0.20253757 0 50
-0.73411596 0.92055589 0.2024402 0 50
-0.76606184 0.93675095 0.20805748 0 50
-0.7760185 0.92546821 0.20765522 0 50
-0.81364697 0.94645894 0.21459375 0 50
-0.82345051 0.93437225 0.21413292 0 50
-0.8402738 0.93015105 0.21551715 0 50
-0.86295867 0.93196535 0.21837968 0 50
-0.88040632 0.92766315 0.2198917 0 50
-0.90116262 0.92644894 0.22221373 0 50
-0.92092812 0.92376709 0.22426967 0 50
-0.94195056 0.92190057 0.22661141 0 50
-0.96923071 0.92554325 0.23041898 0 50
-0.9914431 0.92371672 0.23298171 0 50
-1.0168122 0.92426085 0.23625468 0 50
-1.0457529 0.92734307 0.24031134 0 50
-1.0794051 0.93373054 0.24538755 0 50
-1.1034441 0.93105322 0.24823102 0 50
-1.1393135 0.93758136 0.25368747 0 50
-1.1653892 0.93524587 0.25691351 0 50
-1.2233169 0.95724523 0.26706877 0 50
-1.2409908 0.94670606 0.26836553 0 50
-1.2790236 0.95107085 0.27404043 0 50
-1.3020561 0.94355941 0.27646849 0 50
-1.3457296 0.95019352 0.28323948 0 50
-1.5259475 1.0221566 0.31578332 0 50
-1.3346907 0.77973247 0.26576832 0 50
-1.3492531 0.76614505 0.26677194 0 50
-1.344462 0.74171358 0.26400143 0 50
0.16815273 1.0229617 0.188081 0 51
0.15087387 0.9940623 0.18241268 0 51
0.13346532 0.9586733 0.17560428 0 51
0.12168448 0.96037328 0.17562832 0 51
0.10748207 0.94091892 0.17181592 0 51
0.095656857 0.93973327 0.17137167 0 51
0.084167346 0.94164664 0.17151889 0 51
0.071366817 0.92681706 0.16864513 0 51
0.059321392 0.91765755 0.1668331 0 51
0.048169684 0.92091519 0.16730501 0 51
0.037699506 0.94286168 0.17119493 0 51
0.025718104 0.92932189 0.16866635 0 51
0.014215531 0.92474669 0.16779156 0 51
0.0028712759 0.93365741 0.16938916 0 51
-0.0084947022 0.92125207 0.16714485 0 51
-0.020014519 0.93005419 0.16877373 0 51
-0.031249769 0.9238618 0.16770706 0 51
-0.042843882 0.92854619 0.16864029 0 51
-0.054118089 0.92556286 0.1682066 0 51
-0.065765955 0.92866349 0.1689043 0 51
-0.07666301 0.9215771 0.1677742 0 51
-0.089467026 0.93603355 0.17059341 0 51
-0.099457152 0.9208619 0.16803853 0 51
-0.11316919 0.93946856 0.17167483 0 51
-0.12378953 0.93106842 0.17040509 0 51
-0.1352063 0.9293257 0.17037755 0 51
-0.14611721 0.9243955 0.16979024 0 51
-0.15761149 0.92334557 0.16994052 0 51
-0.17307366 0.94381094 0.17408568 0 51
-0.18119407 0.92391199 0.17081335 0 51
-0.19258076 0.92180753 0.17084919 0 51
-0.20596321 0.92867142 0.17257769 0 51
-0.21788502 0.92827928 0.17298964 0 51
-0.23061205 0.93089807 0.17399296 0 51
-0.24027096 0.92120767 0.17272089 0 51
-0.25490734 0.93032914 0.17500558 0 51
-0.26074976 0.90770948 0.17134075 0 51
-0.27620876 0.91879821 0.17406183 0 51
-0.2860682 0.91082162 0.173204 0 51
-0.30672604 0.93617094 0.17872821 0 51
-0.31961048 0.93642157 0.1795128 0 51
-0.33318087 0.9382807 0.18064092 0 51
-0.34397319 0.93216419 0.18026404 0 51
-0.35362333 0.92320341 0.17935851 0 51
-0.36766419 0.92562419 0.18069348 0 51
-0.37780121 0.91807806 0.18011364 0 51
-0.39478222 0.92679477 0.1827623 0 51
-0.41144139 0.93388593 0.18514434 0 51
-0.4204222 0.92333025 0.18406264 0 51
-0.43673617 0.92870843 0.18619125 0 51
-0.45491672 0.93726724 0.18901435 0 51
-0.46852675 0.93583792 0.18987358 0 51
-0.47895941 0.92799413 0.18946275 0 51
-0.49162999 0.92447311 0.18996376 0 51
-0.50956124 0.93041205 0.19245709 0 51
-0.51957434 0.92161381 0.19194421 0 51
-0.54102278 0.9326635 0.19561628 0 51
-0.55097419 0.92346817 0.1950939 0 51
-0.56607622 0.92280072 0.19640858 0 51
-0.57707024 0.91527987 0.19630329 0 51
-0.60237807 0.92987746 0.20100754 0 51
-0.61975002 0.93139386 0.20296733 0 51
-0.63008982 0.92214417 0.20262474 0 51
-0.6501801 0.92687166 0.20540473 0 51
-0.66741604 0.9269861 0.20723316 0 51
-0.68956268 0.93332672 0.2105303 0 51
-0.70748115 0.93334597 0.21248092 0 51
-0.72990215 0.9387216 0.21573167 0 51
-0.7430566 0.93176711 0.21621688 0 51
-0.76387864 0.93408132 0.218917 0 51
-0.7814796 0.93198103 0.22066021 0 51
-0.79983062 0.93038732 0.22259465 0 51
-0.81410432 0.92376709 0.2233889 0 51
-0.8410933 0.93105817 0.22763592 0 51
-0.86234695 0.93130469 0.23027132 0 51
-0.88266826 0.9300465 0.23262629 0 51
-0.88982564 0.91479385 0.23153052 0 51
-0.92370057 0.92654806 0.23736225 0 51
-0.94848275 0.9282937 0.24077906 0 51
-0.97432166 0.93040472 0.24441567 0 51
-0.98998463 0.92235786 0.24548112 0 51
-1.020305 0.9274357 0.25015277 0 51
-1.0464976 0.92800355 0.2537576 0 51
-1.07107 0.92652029 0.25693396 0 51
-1.1335511 0.9564566 0.26908064 0 51
-1.1495582 0.94601214 0.27009863 0 51
-1.1752563 0.94316441 0.27339098 0 51
-1.2096854 0.94657862 0.27867129 0 51
-1.2290792 0.93761915 0.28046176 0 51
-1.241518 0.92318201 0.28068855 0 51
-1.2566105 0.91062647 0.2815479 0 51
-1.2658516 0.89379323 0.28113469 0 51
-1.2685829 0.87254691 0.27933729 0 51
-1.275576 0.85444516 0.27854255 0 51
-1.2994833 0.84749973 0.28146616 0 51
-1.3109795 0.83220303 0.28171843 0 51
-1.3380924 0.78171974 0.28115401 0 51
-1.3385729 0.76008052 0.27927005 0 51
0.16921459 1.0294216 0.19920325 0 52
0.15036874 0.99073404 0.19134457 0 52
0.13306156 0.95577306 0.18426247 0 52
0.12199108 0.96279305 0.18531266 0 52
0.10955774 0.95908976 0.18432663 0 52
0.096162297 0.94469863 0.18131985 0 52
0.082956314 0.9280979 0.17792436 0 52
0.07006003 0.90984637 0.17424706 0 52
0.059895154 0.92653322 0.17728835 0 52
0.048389472 0.92511714 0.17689016 0 52
0.037108727 0.9280864 0.17735726 0 52
0.025695015 0.92848754 0.17736013 0 52
0.014093755 0.91682494 0.17508598 0 52
0.0028560767 0.92871505 0.17733653 0 52
-0.0085995831 0.93262643 0.17809013 0 52
-0.019981526 0.92852104 0.17733969 0 52
-0.031586658 0.93382156 0.17841274 0 52
-0.042593036 0.92310971 0.17645289 0 52
-0.054706808 0.93563151 0.1789615 0 52
-0.06571696 0.92797166 0.17763752 0 52
-0.077257752 0.92872649 0.17795041 0 52
-0.08856754 0.92662281 0.17774257 0 52
-0.10149069 0.93969023 0.18047486 0 52
-0.1132795 0.94038427 0.18086201 0 52
-0.12327645 0.92720938 0.17860615 0 52
-0.13444492 0.92409253 0.17831074 0 52
-0.14507055 0.9177739 0.1774223 0 52
-0.15677033 0.91841781 0.17790599 0 52
-0.17105053 0.93277836 0.18108152 0 52
-0.18399242 0.9381808 0.18255571 0 52
-0.19530877 0.93486547 0.18236414 0 52
-0.2045818 0.92244273 0.18041791 0 52
-0.22329442 0.9513256 0.18658994 0 52
-0.22708681 0.91666794 0.18032636 0 52
-0.24391608 0.93518317 0.18454474 0 52
-0.25314653 0.92390275 0.18291914 0 52
-0.26782861 0.93235201 0.18523 0 52
-0.28031895 0.93247062 0.18592432 0 52
-0.2961342 0.94287109 0.18870986 0 52
-0.30681461 0.9364413 0.18816383 0 52
-0.3151671 0.92340302 0.18630862 0 52
-0.33154973 0.93368715 0.18919183 0 52
-0.34319848 0.93006474 0.18929863 0 52
-0.35878304 0.93667388 0.19152728 0 52
-0.36753404 0.92529649 0.19011061 0 52
-0.39148128 0.95132142 0.19643186 0 52
-0.39361778 0.92406112 0.19178796 0 52
-0.40909392 0.92855763 0.19375062 0 52
-0.42719045 0.93819469 0.19684264 0 52
-0.43150556 0.91758567 0.19361728 0 52
-0.44845432 0.92395276 0.19610953 0 52
-0.46409005 0.92697603 0.1979475 0 52
-0.478825 0.92773366 0.19935153 0 52
-0.4974035 0.93532974 0.20228274 0 52
-0.50626582 0.92439502 0.20124903 0 52
-0.52192581 0.92578489 0.20293351 0 52
-0.53966337 0.93032002 0.2053667 0 52
-0.56125903 0.94070619 0.20916711 0 52
-0.55846208 0.91038841 0.20393741 0 52
-0.58805585 0.93270391 0.21054025 0 52
-0.60667986 0.93651801 0.21306907 0 52
-0.61832237 0.92924833 0.21312883 0 52
-0.6288498 0.92032933 0.21284063 0 52
-0.64845407 0.924411 0.21561232 0 52
-0.66898 0.92915839 0.21862176 0 52
-0.68141216 0.92229491 0.21896181 0 52
-0.71147531 0.93861526 0.22489643 0 52
-0.7263642 0.9341715 0.22595467 0 52
-0.74548513 0.93481237 0.22830968 0 52
-0.75874114 0.92779911 0.22885814 0 52
-0.77218407 0.92089528 0.22948 0 52
-0.79861557 0.92897397 0.23392256 0 52
-0.82052994 0.93105829 0.23697014 0 52
-0.83180475 0.92077613 0.23693851 0 52
-0.8689298 0.93841392 0.24420814 0 52
-0.87860835 0.92576867 0.2437105 0 52
-0.90051448 0.92578262 0.24661055 0 52
-0.93790168 0.94079298 0.25366199 0 52
-0.935996 0.91607273 0.25008112 0 52
-0.96935737 0.92566419 0.25593415 0 52
-1.0019768 0.93353087 0.26149595 0 52
-1.0211711 0.92822301 0.26350656 0 52
-1.0655977 0.94494087 0.27195165 0 52
-1.0907683 0.94356018 0.27539361 0 52
-1.1221859 0.94686699 0.28036499 0 52
-1.1318942 0.93147582 0.2799077 0 52
-1.1453646 0.9191758 0.2804226 0 52
-1.1495371 0.89951253 0.27871501 0 52
-1.1729301 0.89478505 0.28169787 0 52
-1.1781983 0.87609804 0.28035462 0 52
-1.1790519 0.85442215 0.27803671 0 52
-1.2097176 0.8541581 0.28276995 0 52
-1.2130592 0.83435702 0.2811316 0 52
-1.2393371 0.83017051 0.2848343 0 52
-1.2654712 0.82531768 0.28848645 0 52
-1.2861484 0.8164404 0.29088956 0 52
-1.3330064 0.77874845 0.29478681 0 52
-1.3258319 0.75284582 0.29113099 0 52
0.17170423 1.0445673 0.21225034 0 53
0.15209855 1.0021312 0.20323215 0 53
0.13182986 0.94692582 0.19169326 0 53
0.12155167 0.95932508 0.1938861 0 53
0.1086152 0.95083869 0.1918865 0 53
0.097458839 0.95743591 0.19296144 0 53
0.084621832 0.94673133 0.19057992 0 53
0.071353644 0.92664605 0.18634599 0 53
0.060687259 0.93878651 0.18862307 0 53
0.048643366 0.9299711 0.18671757 0 53
0.037385382 0.93500555 0.18762188 0 53
0.026203653 0.94686717 0.18992308 0 53
0.01419381 0.92333364 0.18515369 0 53
0.0028403476 0.92360038 0.18518618 0 53
-0.0086056562 0.93328506 0.18713507 0 53
-0.020021083 0.93035918 0.18658367 0 53
-0.031290218 0.92505759 0.18558356 0 53
-0.04286392 0.92898047 0.18646221 0 53
-0.053569511 0.91618073 0.18401138 0 53
-0.066380553 0.93734205 0.18841125 0 53
-0.076748133 0.92260027 0.18562374 0 53
-0.089134499 0.9325546 0.18783282 0 53
-0.10119892 0.93698871 0.1889623 0 53
-0.11244731 0.93347585 0.18851845 0 53
-0.12346032 0.92859232 0.18782459 0 53
-0.13440858 0.92384273 0.18718405 0 53
-0.14674941 0.92839503 0.18845779 0 53
-0.15823856 0.92701918 0.18855923 0 53
-0.16952667 0.92446834 0.18845013 0 53
-0.18139069 0.92491454 0.18898147 0 53
-0.19194999 0.91878831 0.18819779 0 53
-0.20807528 0.93819451 0.19268233 0 53
-0.21575598 0.91920877 0.18931367 0 53
-0.22965483 0.92703414 0.19149245 0 53
-0.24010313 0.92056417 0.19075143 0 53
-0.25308323 0.92367172 0.19202568 0 53
-0.26784483 0.93240845 0.19451199 0 53
-0.27794418 0.92457098 0.19357535 0 53
-0.28924558 0.92093819 0.19354479 0 53
-0.30691344 0.93674296 0.19764453 0 53
-0.31414747 0.92041564 0.1949999 0 53
-0.33088994 0.93182909 0.19826499 0 53
-0.34146369 0.92536348 0.19776772 0 53
-0.35249168 0.92024904 0.19758609 0 53
-0.36983773 0.93109626 0.20087634 0 53
-0.38109747 0.92608815 0.20079169 0 53
-0.39459556 0.92635655 0.20188665 0 53
-0.40588686 0.92127836 0.20185238 0 53
-0.42522258 0.93387288 0.2057419 0 53
-0.43637782 0.92794645 0.20560287 0 53
-0.45272538 0.93275243 0.20788546 0 53
-0.45780629 0.91442478 0.20503986 0 53
-0.48284805 0.93552846 0.21108726 0 53
-0.49294412 0.9269442 0.21050212 0 53
-0.50845826 0.92839819 0.21223611 0 53
-0.5249328 0.93111867 0.21431741 0 53
-0.53920817 0.92953533 0.2154628 0 53
-0.55418128 0.92884344 0.2168656 0 53
-0.5707882 0.93048209 0.21887037 0 53
-0.58364326 0.92570525 0.21941829 0 53
-0.60003251 0.92625666 0.22128113 0 53
-0.61898363 0.93024206 0.22403462 0 53
-0.63149357 0.92419857 0.22443229 0 53
-0.65056086 0.92741436 0.22713867 0 53
-0.66553777 0.92437738 0.22838193 0 53
-0.69836456 0.94524014 0.23564024 0 53
-0.70728958 0.93309325 0.2347625 0 53
-0.72859281 0.93703771 0.23799101 0 53
-0.74178123 0.93016785 0.23854479 0 53
-0.75454384 0.92266661 0.23898244 0 53
-0.7827397 0.93348378 0.24425875 0 53
-0.79265887 0.92204493 0.2437976 0 53
-0.82518882 0.93634474 0.25024262 0 53
-0.84488535 0.93525583 0.25270903 0 53
-0.85545886 0.92386574 0.25245464 0 53
-0.87899548 0.92617661 0.25602025 0 53
-0.89297944 0.91803616 0.2567859 0 53
-0.91887987 0.92171252 0.26095498 0 53
-0.97150397 0.95082492 0.27255884 0 53
-0.98884964 0.94427788 0.27414691 0 53
-1.0186431 0.94905865 0.27915031 0 53
-1.0355356 0.94128001 0.28058645 0 53
-1.0670041 0.94618809 0.28593895 0 53
-1.0984769 0.95022833 0.29121986 0 53
-1.1194587 0.94456577 0.29368094 0 53
-1.1395336 0.93776256 0.29589999 0 53
-1.1091663 0.89012599 0.28515086 0 53
-1.1120586 0.87018567 0.28312215 0 53
-1.11599 0.85134757 0.28143656 0 53
-1.1280745 0.83882648 0.2818616 0 53
-1.1401874 0.82625824 0.28232816 0 53
-1.1586307 0.81808656 0.28438261 0 53
-1.1988347 0.82457316 0.29173982 0 53
-1.2078354 0.80906904 0.2914871 0 53
-1.2523019 0.81672883 0.2997719 0 53
-1.2823373 0.81402111 0.3045426 0 53
-1.315634 0.81263679 0.31005368 0 53
-1.3354142 0.78015506 0.31009915 0 53
-1.3373474 0.75938469 0.3083564 0 53
0.15539144 1.0238272 0.21756479 0 54
0.13409716 0.96321177 0.20431808 0 54
0.12285095 0.96957952 0.20533285 0 54
0.110346 0.96599042 0.20426998 0 54
0.096790679 0.95087194 0.20080614 0 54
0.083775461 0.9372623 0.19769955 0 54
0.071209326 0.92477185 0.19486547 0 54
0.059883256 0.92634916 0.19502793 0 54
0.048383933 0.92501122 0.19460629 0 54
0.037376717 0.93478876 0.19655176 0 54
0.025505608 0.92164338 0.19370717 0 54
0.0145278 0.94506031 0.1985763 0 54
0.0028327578 0.92113239 0.1935266 0 54
-0.0086598704 0.93916464 0.19732256 0 54
-0.020128632 0.93535691 0.1965597 0 54
-0.031397469 0.92822838 0.19512805 0 54
-0.043950547 0.95253074 0.20033525 0 54
-0.054298159 0.92864251 0.19543675 0 54
-0.06611263 0.93355888 0.19662765 0 54
-0.076396666 0.91837531 0.19361289 0 54
-0.08883708 0.92944288 0.19616163 0 54
-0.10183583 0.94288588 0.19924803 0 54
-0.11281507 0.93652886 0.19818285 0 54
-0.12298235 0.92499739 0.19604781 0 54
-0.13440526 0.92381978 0.19613369 0 54
-0.1455223 0.92063183 0.19582196 0 54
-0.15627587 0.91552103 0.19512886 0 54
-0.16917068 0.92252707 0.19705056 0 54
-0.18268262 0.9315021 0.19943234 0 54
-0.19363251 0.92684186 0.19892934 0 54
-0.20487747 0.92377579 0.19879694 0 54
-0.2197317 0.93614697 0.20202541 0 54
-0.22756121 0.91858292 0.19882382 0 54
-0.24526073 0.94033861 0.20417011 0 54
-0.25341859 0.92489564 0.20147842 0 54
-0.26457426 0.92102313 0.20132832 0 54
-0.27876312 0.92729521 0.20343326 0 54
-0.28954339 0.92188638 0.20301239 0 54
-0.30314139 0.92523009 0.20455413 0 54
-0.31855196 0.93332022 0.20719306 0 54
-0.33186299 0.93456936 0.20836051 0 54
-0.34228465 0.92758828 0.20772676 0 54
-0.35331488 0.92239815 0.20752171 0 54
-0.36534375 0.91978228 0.20792818 0 54
-0.37886557 0.92066455 0.20916496 0 54
-0.39399412 0.92494458 0.21122205 0 54
-0.40941858 0.92929459 0.21334897 0 54
-0.42555055 0.93459314 0.21575046 0 54
-0.4382782 0.93198752 0.21637671 0 54
-0.45491982 0.93727368 0.21888614 0 54
-0.46355516 0.92590755 0.21754649 0 54
-0.47711584 0.9244222 0.21855941 0 54
-0.49509963 0.93099743 0.22153661 0 54
-0.51074004 0.93256444 0.22338703 0 54
-0.52204913 0.92600369 0.22333628 0 54
-0.53926235 0.92962873 0.2257928 0 54
-0.5531525 0.92711914 0.22681816 0 54
-0.57024997 0.92960471 0.22912443 0 54
-0.59153372 0.93822008 0.23302309 0 54
-0.59973514 0.92579758 0.23175184 0 54
-0.61794764 0.92868513 0.23435909 0 54
-0.63344723 0.9270578 0.23589623 0 54
-0.65417081 0.93256062 0.23932521 0 54
-0.67021489 0.93087351 0.240989 0 54
-0.68671638 0.92947423 0.24279447 0 54
-0.69753528 0.92022485 0.24260055 0 54
-0.72658837 0.93445981 0.24868995 0 54
-0.74391049 0.93283784 0.25067377 0 54
-0.75836581 0.92734015 0.25168329 0 54
-0.77963328 0.92977911 0.25492784 0 54
-0.80452818 0.93585169 0.25928566 0 54
-0.81968802 0.93010294 0.26046577 0 54
-0.8442353 0.93453628 0.26459441 0 54
-0.85569185 0.92411745 0.26460361 0 54
-0.91070193 0.95958495 0.27794451 0 54
-0.9226988 0.94858938 0.27802497 0 54
-0.9415763 0.94447887 0.28019246 0 54
-0.96926779 0.94863635 0.28494009 0 54
-0.99066061 0.94600725 0.28778762 0 54
-1.0197372 0.95007807 0.29281849 0 54
-1.0436413 0.94864792 0.29631051 0 54
-1.0780839 0.95601326 0.30272889 0 54
-1.0985688 0.95030791 0.30517676 0 54
-1.1056639 0.93292612 0.30393797 0 54
-1.1389737 0.93730175 0.30990288 0 54
-1.1666634 0.93626851 0.31428069 0 54
-1.2069991 0.94447649 0.32199359 0 54
-1.2277902 0.93663579 0.32444307 0 54
-1.1206297 0.83329046 0.29339609 0 54
-1.1407495 0.82666558 0.29598004 0 54
-1.1603714 0.81931573 0.29843462 0 54
-1.1977948 0.8238579 0.30543089 0 54
-1.2088572 0.80975348 0.30568963 0 54
-1.2391232 0.80813396 0.31080681 0 54
-1.2786597 0.81168658 0.31819612 0 54
-1.2980145 0.80175364 0.320535 0 54
-1.3460922 0.80875528 0.3299267 0 54
-1.3366466 0.7374019 0.32072327 0 54
0.15496893 1.0210434 0.22691731 0 55
0.1403525 1.0081434 0.22364995 0 55
0.12252448 0.96700287 0.21417275 0 55
0.10866589 0.95128238 0.21037912 0 55
0.096886918 0.95181733 0.21021807 0 55
0.084732622 0.94797081 0.2091226 0 55
0.072210528 0.93777412 0.2066617 0 55
0.059418105 0.91915357 0.20238189 0 55
0.04864997 0.9300974 0.20464435 0 55
0.037169248 0.92959994 0.20441888 0 55
0.025607355 0.92531997 0.2033931 0 55
0.014277247 0.92876142 0.20409553 0 55
0.0028837288 0.93770671 0.20603789 0 55
-0.0084230583 0.91348225 0.20072275 0 55
-0.019881358 0.92386633 0.20304285 0 55
-0.031522639 0.93192881 0.20488448 0 55
-0.042026214 0.91082507 0.2003433 0 55
-0.054064985 0.92465466 0.20351607 0 55
-0.066326663 0.93658108 0.20630498 0 55
-0.077629901 0.93320018 0.20575497 0 55
-0.087278269 0.91313404 0.20155211 0 55
-0.10080406 0.9333328 0.2062685 0 55
-0.11224497 0.93179613 0.20621833 0 55
-0.12225401 0.91951919 0.20381857 0 55
-0.13581395 0.93350244 0.20727257 0 55
-0.14860679 0.94014555 0.20913753 0 55
-0.1583048 0.92740726 0.20672126 0 55
-0.17031962 0.92879248 0.20748118 0 55
-0.18370675 0.93672407 0.20974177 0 55
-0.19355211 0.92645699 0.20796005 0 55
-0.20408739 0.92021346 0.20710623 0 55
-0.21473075 0.91484082 0.2064757 0 55
-0.2309245 0.9321593 0.21100934 0 55
-0.24271595 0.93058187 0.21131189 0 55
-0.25543025 0.93223757 0.21238501 0 55
-0.26870656 0.93540829 0.21384397 0 55
-0.27768493 0.92370862 0.21193388 0 55
-0.29253033 0.9313966 0.21450689 0 55
-0.30233634 0.922773 0.21336089 0 55
-0.31964463 0.93652165 0.21743217 0 55
-0.32910129 0.92679209 0.21609646 0 55
-0.34236875 0.92781621 0.21730044 0 55
-0.35658303 0.93093038 0.21904017 0 55
-0.37163341 0.93561703 0.22120142 0 55
-0.3801797 0.92385793 0.21950994 0 55
-0.39702523 0.93206054 0.22260202 0 55
-0.40847808 0.92715991 0.22261438 0 55
-0.42496124 0.93329889 0.22532602 0 55
-0.4359262 0.92698604 0.22507904 0 55
-0.44258007 0.91184998 0.22270846 0 55
-0.46453726 0.92786926 0.22799887 0 55
-0.48183337 0.93356246 0.23083624 0 55
-0.49314004 0.92731255 0.23077279 0 55
-0.5103994 0.93194246 0.23346923 0 55
-0.52563274 0.93236017 0.23517531 0 55
-0.53401506 0.92058301 0.23384331 0 55
-0.55624056 0.93229496 0.23853774 0 55
-0.56750983 0.92513782 0.23847397 0 55
-0.586101 0.92960334 0.24146454 0 55
-0.59512538 0.91868156 0.24051027 0 55
-0.61058456 0.91761953 0.24217951 0 55
-0.63706011 0.93234527 0.24811466 0 55
-0.65165794 0.92897832 0.24933222 0 55
-0.65771902 0.91351777 0.24733467 0 55
-0.6947692 0.94037378 0.2568996 0 55
-0.70454752 0.92947572 0.25626975 0 55
-0.72196722 0.92851651 0.25843343 0 55
-0.74654436 0.93614066 0.26309058 0 55
-0.75763834 0.92645061 0.26296565 0 55
-0.76885319 0.91692299 0.26292494 0 55
-0.81894511 0.95262188 0.27602822 0 55
-0.826989 0.93838739 0.27482945 0 55
-0.85665923 0.9482891 0.28079328 0 55
-0.88165677 0.95215863 0.28512767 0 55
-0.89989775 0.94820082 0.2872344 0 55
-0.92569965 0.95167446 0.29171276 0 55
-0.94892186 0.95184708 0.29532 0 55
-0.96041125 0.93996829 0.29527625 0 55
-0.99088478 0.94622129 0.3010453 0 55
-1.0183799 0.94881344 0.30583096 0 55
-1.051326 0.95563316 0.31217253 0 55
-1.0663886 0.94564229 0.31316867 0 55
-1.1007273 0.95217514 0.31979039 0 55
-1.1217831 0.94652712 0.32250184 0 55
-1.1418377 0.9396587 0.32492101 0 55
-1.1730438 0.94138885 0.33048201 0 55
-1.2063686 0.94398314 0.33657491 0 55
-1.245981 0.95051289 0.34433979 0 55
-1.2803999 0.95209426 0.35058984 0 55
-1.1281091 0.81750548 0.30611503 0 55
-1.1486417 0.81103361 0.3089571 0 55
-1.166862 0.80258203 0.31117991 0 55
-1.1957611 0.8009811 0.31623623 0 55
-1.2348827 0.80536836 0.32393897 0 55
-1.2640408 0.80240661 0.32897469 0 55
-1.2950562 0.7999264 0.33446139 0 55
-1.3414332 0.71867245 0.33438057 0 55
0.14097914 1.0126446 0.23453306 0 56
0.12160206 0.95972282 0.22191304 0 56
0.10933061 0.9571014 0.22097935 0 56
0.097054809 0.95346677 0.21984799 0 56
0.086242452 0.96486247 0.22221427 0 56
0.072262593 0.93845028 0.21591039 0 56
0.060211029 0.93141955 0.21410631 0 56
0.048936903 0.93558306 0.21490879 0 56
0.037754774 0.94424403 0.21677524 0 56
0.025428288 0.91884941 0.21085754 0 56
0.014138788 0.91975439 0.21100937 0 56
0.0028499076 0.92670906 0.21258079 0 56
-0.0085369004 0.92582846 0.2123868 0 56
-0.019810718 0.92058378 0.21122359 0 56
-0.031577762 0.93355846 0.21427347 0 56
-0.042802528 0.92764992 0.21302201 0 56
-0.053994514 0.9234494 0.21219385 0 56
-0.066539429 0.93958557 0.21607335 0 56
-0.077183738 0.92783678 0.21357363 0 56
-0.089883663 0.94039261 0.21670181 0 56
-0.099280953 0.91923052 0.21209057 0 56
-0.11162704 0.92666644 0.21410674 0 56
-0.12290563 0.9244203 0.21392079 0 56
-0.13433284 0.92332208 0.21403269 0 56
-0.14732558 0.9320401 0.21645719 0 56
-0.15964341 0.93524927 0.21764193 0 56
-0.17134836 0.93440247 0.21791871 0 56
-0.18086067 0.92221195 0.21557803 0 56
-0.19303876 0.92399985 0.21653448 0 56
-0.20471549 0.92304552 0.21688436 0 56
-0.21842867 0.93059552 0.21927287 0 56
-0.23335683 0.9419778 0.22261412 0 56
-0.24182284 0.92715764 0.21979785 0 56
-0.25655988 0.93636036 0.22271056 0 56
-0.26544315 0.92404789 0.22054173 0 56
-0.28081265 0.93411291 0.22375116 0 56
-0.29338971 0.93413275 0.2246031 0 56
-0.3020398 0.92186797 0.22253032 0 56
-0.31406403 0.9201712 0.2230361 0 56
-0.32962492 0.9282667 0.22596368 0 56
-0.34496042 0.93483955 0.22857897 0 56
-0.35356665 0.92305547 0.22674353 0 56
-0.36632141 0.92224365 0.2276334 0 56
-0.3805995 0.92487806 0.22942145 0 56
-0.39002988 0.91563815 0.22830184 0 56
-0.40223575 0.91299111 0.22885777 0 56
-0.42334473 0.92974871 0.23434556 0 56
-0.43266198 0.92004478 0.23322299 0 56
-0.44791859 0.922849 0.23531222 0 56
-0.46383151 0.92645961 0.2376692 0 56
-0.48129565 0.93252063 0.2407241 0 56
-0.49187183 0.92492783 0.24030724 0 56
-0.50482875 0.92177105 0.24108164 0 56
-0.51402116 0.91176373 0.24009927 0 56
-0.54644459 0.9420101 0.24981476 0 56
-0.55311662 0.92705899 0.24763478 0 56
-0.57157964 0.93177229 0.25075227 0 56
-0.58798975 0.93259907 0.25290138 0 56
-0.60419178 0.93267715 0.25491798 0 56
-0.61591232 0.9256264 0.2550416 0 56
-0.64085031 0.93789226 0.26057282 0 56
-0.66066384 0.94181681 0.26390025 0 56
-0.66150731 0.91877937 0.25970468 0 56
-0.68508887 0.92727143 0.26446629 0 56
-0.70341182 0.9279775 0.26711437 0 56
-0.73214096 0.94160092 0.27360654 0 56
-0.7545647 0.94619787 0.27761742 0 56
-0.78155261 0.9556933 0.28320169 0 56
-0.7821933 0.93283212 0.27925628 0 56
-0.8204872 0.95441568 0.28871611 0 56
-0.83358467 0.94587147 0.28921032 0 56
-0.85512984 0.94659609 0.29262483 0 56
-0.88372046 0.95438737 0.29837006 0 56
-0.90110219 0.94946986 0.30027407 0 56
-0.92206395 0.94793677 0.30335203 0 56
-0.95142096 0.95435393 0.30912608 0 56
-0.96397513 0.94345629 0.30941233 0 56
-0.9939667 0.94916427 0.31526884 0 56
-1.019477 0.9498356 0.31963152 0 56
-1.0439633 0.94894063 0.32362571 0 56
-1.0667557 0.94596773 0.32706064 0 56
-1.0926733 0.94520807 0.33141834 0 56
-1.1187536 0.9439708 0.33578265 0 56
-1.1495794 0.9460296 0.34151745 0 56
-1.1841472 0.9502995 0.34828904 0 56
-1.2047269 0.9426986 0.35090607 0 56
-1.2356536 0.94263452 0.35651109 0 56
-1.2710769 0.9451617 0.36335072 0 56
-1.1127609 0.80638307 0.31523609 0 56
-1.1294879 0.79750937 0.31717262 0 56
-1.1591744 0.79729438 0.32273149 0 56
-1.196149 0.80124098 0.33025774 0 56
-1.2286299 0.80129045 0.3364799 0 56
-1.259078 0.79925627 0.34210116 0 56
-1.2928044 0.79853547 0.34857059 0 56
-1.3130027 0.78887451 0.35137451 0 56
-1.3352314 0.71534985 0.3474794 0 56
0.14340384 1.0300611 0.24866389 0 57
0.12389269 0.97780114 0.23566239 0 57
0.10951926 0.95875293 0.23072951 0 57
0.097281463 0.95569336 0.22968797 0 57
0.085143395 0.9525665 0.22866756 0 57
0.070601732 0.91688126 0.21987614 0 57
0.059929468 0.927064 0.22212455 0 57
0.048380725 0.92494994 0.22145873 0 57
0.03777004 0.94462574 0.22604138 0 57
0.025322525 0.91502768 0.21886773 0 57
0.014249484 0.9269554 0.22166209 0 57
0.0028584681 0.92949265 0.22224362 0 57
-0.0086675053 0.93999261 0.22476266 0 57
-0.020129396 0.93539238 0.22370498 0 57
-0.031651713 0.93574482 0.22386542 0 57
-0.043139461 0.93495226 0.2237858 0 57
-0.05359441 0.91660655 0.21953581 0 57
-0.065321773 0.9223913 0.22109698 0 57
-0.077604368 0.93289328 0.22382611 0 57
-0.089156389 0.93278354 0.22404589 0 57
-0.10068807 0.93225884 0.22420028 0 57
-0.11208697 0.93048453 0.2240881 0 57
-0.12422239 0.93432415 0.22536363 0 57
-0.13399476 0.92099839 0.22252998 0 57
-0.1444398 0.91378349 0.22119915 0 57
-0.1599589 0.93709755 0.22730172 0 57
-0.170799 0.93140668 0.22641367 0 57
-0.18420084 0.93924356 0.228852 0 57
-0.19362563 0.92680895 0.22638525 0 57
-0.20774777 0.93671781 0.22941227 0 57
-0.21823017 0.92974979 0.22834566 0 57
-0.22757623 0.91864353 0.22628815 0 57
-0.24541526 0.94093108 0.232504 0 57
-0.25524616 0.9315657 0.2309479 0 57
-0.26647645 0.92764491 0.23077078 0 57
-0.27845696 0.92627674 0.23126474 0 57
-0.2924383 0.93110365 0.23335004 0 57
-0.30874351 0.94232857 0.23709673 0 57
-0.31381088 0.91942948 0.23228848 0 57
-0.32759318 0.92254496 0.23407561 0 57
-0.34302926 0.9296062 0.23691957 0 57
-0.3564997 0.93071276 0.2383008 0 57
-0.36675444 0.92333382 0.23754822 0 57
-0.38127363 0.92651623 0.23955503 0 57
-0.39603144 0.92972744 0.24162614 0 57
-0.41272238 0.93679357 0.24476299 0 57
-0.42317927 0.9293853 0.24416852 0 57
-0.43718871 0.92967075 0.24563728 0 57
-0.44960192 0.92631716 0.24619333 0 57
-0.46943086 0.93764377 0.25071886 0 57
-0.48158997 0.93309087 0.25106594 0 57
-0.49046376 0.92228007 0.24976096 0 57
-0.50429946 0.92080456 0.25102171 0 57
-0.52539855 0.93194479 0.25580055 0 57
-0.53696585 0.92566985 0.25587118 0 57
-0.56042749 0.93931252 0.26152736 0 57
-0.56474483 0.92063046 0.25823978 0 57
-0.5844813 0.92703444 0.2620323 0 57
-0.60056645 0.92708093 0.26411283 0 57
-0.62358582 0.93715847 0.26914793 0 57
-0.63409626 0.9280076 0.26873884 0 57
-0.66828716 0.95268428 0.27824354 0 57
-0.68381971 0.9497695 0.27982691 0 57
-0.69537503 0.94119376 0.27979839 0 57
-0.71406382 0.94203019 0.28263593 0 57
-0.73363847 0.94352686 0.28576997 0 57
-0.753456 0.94480759 0.28894213 0 57
-0.7782284 0.95162839 0.29393238 0 57
-0.80507946 0.9601258 0.29959211 0 57
-0.8222211 0.95643258 0.30157167 0 57
-0.83144301 0.94344139 0.30067638 0 57
-0.8534953 0.94478679 0.30442688 0 57
-0.87862754 0.94888717 0.30920598 0 57
-0.90095311 0.94931281 0.31293112 0 57
-0.9264794 0.95247608 0.31770521 0 57
-0.9444502 0.94736165 0.31984881 0 57
-0.96816438 0.94755638 0.32390946 0 57
-0.99500453 0.95015538 0.32895538 0 57
-1.0202336 0.95054048 0.33340687 0 57
-1.0375121 0.94307655 0.33523834 0 57
-1.0724548 0.95102161 0.34272444 0 57
-1.1015048 0.9528476 0.34823731 0 57
-1.10929 0.9359858 0.34703371 0 57
-1.1368845 0.9355824 0.35204077 0 57
-1.1683731 0.93764049 0.35819405 0 57
-1.2031778 0.94148642 0.36528751 0 57
-1.2387658 0.9450087 0.372536 0 57
-1.2676538 0.94261634 0.37770924 0 57
-1.1112721 0.80530423 0.32813853 0 57
-1.1293808 0.79743379 0.3305653 0 57
-1.1582255 0.79664177 0.33611542 0 57
-1.1779118 0.78902465 0.33898711 0 57
-1.2225848 0.7973479 0.34899542 0 57
-1.2399263 0.78709882 0.35115632 0 57
-1.2712971 0.7852509 0.35727915 0 57
-1.3015656 0.78200293 0.36305583 0 57
-1.3479022 0.72213823 0.36562312 0 57
0.14532261 1.0438434 0.26226836 0 58
0.12883826 1.0168332 0.25506464 0 58
0.11254477 0.98523879 0.24677365 0 58
0.097470142 0.95754695 0.23951934 0 58
0.085621528 0.95791572 0.23933014 0 58
0.072094254 0.93626404 0.23368143 0 58
0.059822973 0.92541665 0.23077299 0 58
0.048216049 0.92180163 0.22970627 0 58
0.036561154 0.91439164 0.22773051 0 58
0.02530003 0.91421479 0.22759178 0 58
0.014011891 0.9114995 0.22685578 0 58
0.0028779882 0.93584001 0.23288728 0 58
-0.0085607478 0.9284147 0.2310482 0 58
-0.019887488 0.92415118 0.23003064 0 58
-0.031294063 0.92517132 0.23036292 0 58
-0.043154001 0.93526739 0.23299131 0 58
-0.054360338 0.92970598 0.23175485 0 58
-0.066043168 0.93257797 0.23265563 0 58
-0.07808964 0.93872678 0.23441143 0 58
-0.089319937 0.93449467 0.23361124 0 58
-0.099785261 0.92389989 0.23125194 0 58
-0.1117551 0.92772955 0.23253688 0 58
-0.12418441 0.93403846 0.23448324 0 58
-0.13733183 0.94393533 0.23737377 0 58
-0.14679678 0.92869467 0.23397741 0 58
-0.1572592 0.92128175 0.23257938 0 58
-0.17095058 0.93223321 0.23585695 0 58
-0.18108694 0.92336571 0.23415911 0 58
-0.19230163 0.92047143 0.23400712 0 58
-0.20576878 0.92779469 0.23649423 0 58
-0.2184505 0.9306885 0.23789859 0 58
-0.23111323 0.93292111 0.23917763 0 58
-0.24166836 0.92656535 0.23829201 0 58
-0.25334951 0.92464358 0.23858093 0 58
-0.26570711 0.92496669 0.23948923 0 58
-0.28207269 0.93830436 0.24382219 0 58
-0.29334691 0.93399662 0.24362171 0 58
-0.30249485 0.92325681 0.24177229 0 58
-0.31745937 0.93011916 0.24457309 0 58
-0.32711458 0.92119724 0.24326637 0 58
-0.34947261 0.94706756 0.25121391 0 58
-0.35904258 0.93735147 0.2497889 0 58
-0.36726791 0.92462653 0.24758264 0 58
-0.38567495 0.93721169 0.25220332 0 58
-0.39741525 0.93297613 0.25235948 0 58
-0.4110254 0.93294173 0.25369811 0 58
-0.42134941 0.92536664 0.25302795 0 58
-0.443584 0.94327021 0.25939527 0 58
-0.45415103 0.93568969 0.25882679 0 58
-0.46862608 0.93603629 0.26049697 0 58
-0.48553178 0.94072825 0.26344433 0 58
-0.49584654 0.93240196 0.26280022 0 58
-0.50730658 0.92629522 0.26281738 0 58
-0.52571315 0.93250281 0.26639265 0 58
-0.54161572 0.93368566 0.26861286 0 58
-0.55060077 0.92284226 0.26742089 0 58
-0.56392956 0.91930133 0.26838392 0 58
-0.5995959 0.95100737 0.27977163 0 58
-0.61347586 0.94700885 0.28079331 0 58
-0.63278121 0.9509778 0.28425574 0 58
-0.64202875 0.93961692 0.28319824 0 58
-0.66386276 0.94637704 0.28767434 0 58
-0.68242741 0.94783568 0.29064655 0 58
-0.70473236 0.95385897 0.29512849 0 58
-0.72849935 0.96107429 0.30010989 0 58
-0.72881168 0.93731916 0.29546812 0 58
-0.76971954 0.9652015 0.30721775 0 58
-0.78054661 0.95446312 0.30683157 0 58
-0.79955578 0.95353842 0.30967149 0 58
-0.81855679 0.95217013 0.31247234 0 58
-0.84362227 0.95726126 0.31752336 0 58
-0.84850264 0.93926007 0.31498936 0 58
-0.87179744 0.94151086 0.31931511 0 58
-0.89415985 0.94215488 0.32323807 0 58
-0.92282563 0.9487198 0.32935864 0 58
-0.93957251 0.94246894 0.33117443 0 58
-0.96872646 0.94810653 0.33731568 0 58
-0.99290502 0.94815046 0.34164923 0 58
-1.0169841 0.94751298 0.34589946 0 58
-1.0459563 0.9507522 0.35175064 0 58
-1.0790808 0.95689738 0.35890615 0 58
-1.0946729 0.94693774 0.36019203 0 58
-1.1348599 0.9575609 0.36951295 0 58
-1.1369038 0.93559837 0.36640483 0 58
-1.1858276 0.95164812 0.37837222 0 58
-1.1990296 0.93824041 0.37887481 0 58
-1.239448 0.9455291 0.38794324 0 58
-1.2646139 0.94035584 0.3921712 0 58
-1.302156 0.94363183 0.40018487 0 58
-1.1219429 0.79218203 0.34178141 0 58
-1.148594 0.79001707 0.34691468 0 58
-1.1780043 0.78908664 0.35284027 0 58
-1.2160168 0.7930643 0.36127767 0 58
-1.2350264 0.78398836 0.36403379 0 58
-1.267182 0.78270906 0.37064695 0 58
-1.281981 0.77023613 0.37217718 0 58
-1.3344134 0.71491158 0.37672675 0 58
0.13060938 1.0308115 0.26874998 0 59
0.11284799 0.98789328 0.25717926 0 59
0.09876734 0.97029066 0.25226149 0 59
0.085548088 0.95709407 0.2485383 0 59
0.073446311 0.95382279 0.24743558 0 59
0.060636267 0.93799764 0.24311851 0 59
0.049153537 0.93972462 0.24339105 0 59
0.037246197 0.93152446 0.24113035 0 59
0.02599486 0.93932241 0.24304777 0 59
0.014222549 0.9252032 0.23933111 0 59
0.0028156049 0.91555476 0.2368084 0 59
-0.0086674532 0.93998688 0.24313696 0 59
-0.019938521 0.92652267 0.2396996 0 59
-0.031481061 0.93069965 0.24086215 0 59
-0.042792711 0.92743719 0.24013588 0 59
-0.053885005 0.9215765 0.23877192 0 59
-0.065570384 0.92590195 0.24008334 0 59
-0.077872179 0.9361127 0.24296087 0 59
-0.08874996 0.92853135 0.2412582 0 59
-0.099756196 0.92363071 0.24028544 0 59
-0.11039226 0.91641599 0.23874359 0 59
-0.12283537 0.92389184 0.24106647 0 59
-0.13627112 0.93664461 0.2448127 0 59
-0.14679581 0.92868865 0.24318664 0 59
-0.15766303 0.92364752 0.24235593 0 59
-0.1712229 0.9337182 0.24553224 0 59
-0.18232608 0.9296841 0.24504246 0 59
-0.19189601 0.91852987 0.24270608 0 59
-0.20617783 0.9296391 0.24629277 0 59
-0.2174243 0.92631644 0.2461022 0 59
-0.23056616 0.93071282 0.2480047 0 59
-0.24127369 0.92505217 0.24726819 0 59
-0.25801 0.94165283 0.25253454 0 59
-0.26518062 0.92313391 0.2484238 0 59
-0.28260413 0.94007218 0.25389799 0 59
-0.29083642 0.92600334 0.25104517 0 59
-0.30167225 0.92074615 0.25060663 0 59
-0.31941193 0.93583989 0.25576448 0 59
-0.33149871 0.9335435 0.25623155 0 59
-0.34324285 0.93018496 0.25644881 0 59
-0.35179156 0.91842127 0.25437897 0 59
-0.36989868 0.93124968 0.25917232 0 59
-0.38193378 0.92812043 0.25958884 0 59
-0.39304715 0.92272151 0.25941098 0 59
-0.41016662 0.93099248 0.2631343 0 59
-0.42047858 0.92345411 0.26244518 0 59
-0.43403554 0.92296559 0.26380321 0 59
-0.4508653 0.92892009 0.26706955 0 59
-0.46765113 0.93408889 0.27018845 0 59
-0.48771197 0.94495237 0.27504468 0 59
-0.50046206 0.94108117 0.27568823 0 59
-0.50967121 0.93061292 0.2744368 0 59
-0.53020751 0.94047481 0.2792466 0 59
-0.55258942 0.95260316 0.28484377 0 59
-0.57053328 0.95625043 0.28801036 0 59
-0.58057177 0.94643104 0.28718135 0 59
-0.60224193 0.95520425 0.29206845 0 59
-0.61171514 0.94429088 0.29100946 0 59
-0.63510746 0.95447385 0.29653195 0 59
-0.64789158 0.94819725 0.29703459 0 59
-0.66368091 0.94611788 0.29891711 0 59
-0.67508101 0.93763214 0.2988362 0 59
-0.70133698 0.94926327 0.3052687 0 59
-0.71114451 0.93817884 0.30449322 0 59
-0.7352131 0.94555193 0.30979696 0 59
-0.75095206 0.94166774 0.31152621 0 59
-0.78264678 0.95703119 0.31976843 0 59
-0.78855431 0.94041824 0.31743345 0 59
-0.80990446 0.94210547 0.32134026 0 59
-0.8385933 0.95155483 0.32805571 0 59
-0.85852611 0.95035565 0.33125681 0 59
-0.88238841 0.95294881 0.33591726 0 59
-0.90158468 0.94997829 0.33875248 0 59
-0.93040788 0.95651478 0.34513691 0 59
-0.95351315 0.95645255 0.34931868 0 59
-0.96934456 0.94871145 0.35081822 0 59
-0.99926662 0.9542253 0.35737383 0 59
-1.0146031 0.94529468 0.35867456 0 59
-1.0576574 0.96138823 0.36968765 0 59
-1.0698544 0.94871563 0.36984539 0 59
-1.0887252 0.94179285 0.3723374 0 59
-1.1135904 0.9396143 0.37686124 0 59
-1.1465809 0.94356203 0.38407037 0 59
-1.1768945 0.94447911 0.39030474 0 59
-1.2164518 0.95187324 0.39951155 0 59
-1.2300115 0.93833029 0.4001452 0 59
-1.2693481 0.94387627 0.40913546 0 59
-1.2936894 0.93749636 0.41323423 0 59
-1.1095424 0.78342628 0.35130975 0 59
-1.1395863 0.78382146 0.35774368 0 59
-1.1725787 0.78545237 0.3650412 0 59
-1.196887 0.78058827 0.36959267 0 59
-1.2206974 0.77489245 0.37397459 0 59
-1.2576479 0.77682006 0.38233945 0 59
-1.2799457 0.76901329 0.38621429 0 59
-1.3213922 0.77196336 0.39582625 0 59
0.13315268 1.050884 0.28440991 0 60
0.11362872 0.99472797 0.26881346 0 60
0.097795941 0.9607476 0.25928608 0 60
0.08596319 0.96173823 0.25924855 0 60
0.073265322 0.95147234 0.25621906 0 60
0.060276449 0.93243158 0.25087306 0 60
0.049388904 0.94422442 0.25386336 0 60
0.036548421 0.91407311 0.24561752 0 60
0.025563663 0.92374116 0.24811216 0 60
0.014202321 0.92388737 0.24808575 0 60
0.0028727527 0.93413758 0.25080976 0 60
-0.0086004073 0.93271577 0.25043747 0 60
-0.020066192 0.93245542 0.25041488 0 60
-0.0313638 0.92723298 0.24909711 0 60
-0.042691048 0.92523384 0.24868228 0 60
-0.054727569 0.93598658 0.2517342 0 60
-0.066122323 0.93369567 0.25131774 0 60
-0.077009872 0.92574674 0.24941421 0 60
-0.088502884 0.92594641 0.24974233 0 60
-0.10013086 0.92709965 0.25036654 0 60
-0.11098865 0.92136693 0.24916811 0 60
-0.12191479 0.91696781 0.24836509 0 60
-0.13477024 0.92632854 0.25133035 0 60
-0.14524882 0.91890168 0.24978101 0 60
-0.15884258 0.93055779 0.25346118 0 60
-0.16968042 0.92530674 0.25258017 0 60
-0.18366735 0.93652326 0.25623903 0 60
-0.19520909 0.93438834 0.25629228 0 60
-0.20423146 0.92086297 0.25325212 0 60
-0.21925768 0.93412745 0.25762206 0 60
-0.2295669 0.92667919 0.25632703 0 60
-0.2369885 0.90862256 0.25211945 0 60
-0.25353777 0.92533064 0.25760108 0 60
-0.264063 0.9192434 0.256791 0 60
-0.28056395 0.93328565 0.26165766 0 60
-0.28955558 0.92192525 0.25945127 0 60
-0.30498481 0.93085653 0.26300025 0 60
-0.31688088 0.92842424 0.26339403 0 60
-0.33217335 0.9354434 0.26652402 0 60
-0.34069079 0.92326891 0.26422891 0 60
-0.3540436 0.92430061 0.26575002 0 60
-0.36380714 0.91591376 0.26460487 0 60
-0.37890586 0.92076242 0.26733145 0 60
-0.39628652 0.93032628 0.27150247 0 60
-0.40885302 0.92801088 0.27227336 0 60
-0.42289302 0.92875665 0.27399713 0 60
-0.44313467 0.94231468 0.27958333 0 60
-0.46231261 0.95250505 0.28427199 0 60
-0.47021374 0.93920749 0.28200766 0 60
-0.49281314 0.95483601 0.28849804 0 60
-0.50053847 0.94122481 0.28622353 0 60
-0.52350461 0.9558714 0.29261294 0 60
-0.53420365 0.94756317 0.29205838 0 60
-0.54707581 0.94309831 0.29273352 0 60
-0.57300377 0.96039116 0.30026546 0 60
-0.58188933 0.94857889 0.29878685 0 60
-0.60322344 0.956761 0.30367753 0 60
-0.61611861 0.95108843 0.3042587 0 60
-0.63086462 0.94809747 0.30576038 0 60
-0.64497536 0.94392931 0.30695069 0 60
-0.66118926 0.9425658 0.30912778 0 60
-0.68091035 0.94572866 0.31288737 0 60
-0.69897556 0.94606709 0.31581905 0 60
-0.71374053 0.94160366 0.31723487 0 60
-0.74125409 0.95332122 0.32422897 0 60
-0.75986385 0.95284283 0.32721934 0 60
-0.78008646 0.95390046 0.33085167 0 60
-0.78772873 0.93943363 0.32916871 0 60
-0.80975938 0.94193679 0.33350947 0 60
-0.83302331 0.94523454 0.33827832 0 60
-0.85286397 0.94408792 0.34159529 0 60
-0.8828398 0.95343626 0.34887931 0 60
-0.89554894 0.9436186 0.34928995 0 60
-0.92513227 0.95109111 0.35623994 0 60
-0.94050348 0.94340277 0.35766491 0 60
-0.97209257 0.951401 0.36520135 0 60
-0.99159169 0.94689637 0.36812478 0 60
-1.0205611 0.9508456 0.37451059 0 60
-1.0493065 0.95379746 0.38072649 0 60
-1.0679927 0.94706464 0.38325211 0 60
-1.0805321 0.93470532 0.38359839 0 60
-1.1131365 0.93923134 0.39104363 0 60
-1.1422904 0.94003123 0.39719465 0 60
-1.1745645 0.94260919 0.40435603 0 60
-1.2116565 0.94812095 0.41308054 0 60
-1.2460312 0.95055121 0.42078301 0 60
-1.2744951 0.94770348 0.42642763 0 60
-1.3081472 0.94797343 0.43375418 0 60
-1.1177042 0.78918916 0.36736178 0 60
-1.1362864 0.78155172 0.37028259 0 60
-1.16222 0.77851355 0.37558568 0 60
-1.1909701 0.77672935 0.38176122 0 60
-1.2076579 0.76661497 0.38405973 0 60
-1.243346 0.76798618 0.39237639 0 60
-1.2759298 0.76660049 0.39965418 0 60
-1.2972792 0.75787652 0.40339187 0 60
-1.33763 0.75954521 0.41300359 0 60
-1.3462957 0.74272513 0.41282812 0 60
0.11656839 1.0204624 0.28592786 0 61
0.099935859 0.98177016 0.27472141 0 61
0.087288588 0.97656643 0.27294433 0 61
0.071256094 0.92537922 0.25837338 0 61
0.061037026 0.94419712 0.26339802 0 61
0.048907086 0.93501294 0.26064849 0 61
0.037074059 0.92721933 0.2583293 0 61
0.025662526 0.92731363 0.25824812 0 61
0.01436937 0.93475419 0.26025137 0 61
0.0028514029 0.92719519 0.25811756 0 61
-0.0086271781 0.93561906 0.26047248 0 61
-0.020099668 0.93401098 0.26007393 0 61
-0.031798173 0.94007468 0.26185143 0 61
-0.042733632 0.92615682 0.25810155 0 61
-0.054702897 0.93556464 0.26089105 0 61
-0.066234805 0.93528396 0.26102018 0 61
-0.075720027 0.91024125 0.25427186 0 61
-0.089063518 0.93181193 0.26058376 0 61
-0.10131922 0.93810266 0.26267153 0 61
-0.11140614 0.92483264 0.25931987 0 61
-0.12364811 0.93000484 0.26117671 0 61
-0.1362621 0.93658274 0.26347464 0 61
-0.14604841 0.92396027 0.26040927 0 61
-0.15682185 0.91871953 0.2594561 0 61
-0.16986333 0.92630416 0.26216814 0 61
-0.18159725 0.92596775 0.26268506 0 61
-0.19423458 0.92972374 0.26440814 0 61
-0.20496863 0.92418694 0.26353037 0 61
-0.21921372 0.93394011 0.26705992 0 61
-0.22787821 0.91986251 0.26381576 0 61
-0.2426541 0.9303447 0.26765755 0 61
-0.25711823 0.93839818 0.27086362 0 61
-0.26470113 0.92146474 0.2668952 0 61
-0.28344834 0.94288039 0.27408689 0 61
-0.29418242 0.93665671 0.2733086 0 61
-0.30279788 0.9241817 0.27073449 0 61
-0.32125655 0.94124436 0.27686921 0 61
-0.33122197 0.93276417 0.27555194 0 61
-0.34128115 0.92486876 0.2744385 0 61
-0.36049297 0.94113803 0.28056026 0 61
-0.37950009 0.95542204 0.28618792 0 61
-0.3878209 0.94242644 0.28370222 0 61
-0.41027275 0.96316046 0.29144052 0 61
-0.41278419 0.93693382 0.28501898 0 61
-0.42626834 0.93616956 0.28635937 0 61
-0.44858107 0.95389628 0.29344675 0 61
-0.45770794 0.94301802 0.29180959 0 61
-0.4807272 0.96020716 0.29893523 0 61
-0.48307338 0.935965 0.29321522 0 61
-0.50329995 0.94641751 0.29840598 0 61
-0.51835144 0.94646221 0.30040705 0 61
-0.53283095 0.9451282 0.3020404 0 61
-0.5577926 0.96157289 0.30946425 0 61
-0.55956894 0.93787354 0.30402851 0 61
-0.57905704 0.94396174 0.30828699 0 61
-0.59513032 0.94392467 0.31064138 0 61
-0.61478829 0.94903481 0.31478718 0 61
-0.6262064 0.9410969 0.31468451 0 61
-0.64345378 0.94170249 0.3175087 0 61
-0.66329002 0.94556057 0.32153517 0 61
-0.6847207 0.9510209 0.32623035 0 61
-0.69615823 0.94225383 0.32613474 0 61
-0.72238481 0.95300764 0.33290622 0 61
-0.73421705 0.94427097 0.33298293 0 61
-0.75036794 0.94093531 0.33503506 0 61
-0.7648232 0.93523633 0.33632907 0 61
-0.79795933 0.95163447 0.34572864 0 61
-0.81640005 0.94966137 0.34863257 0 61
-0.83967507 0.95278233 0.35354203 0 61
-0.85798901 0.94976109 0.35630885 0 61
-0.88212621 0.95266563 0.36144051 0 61
-0.89487618 0.94290972 0.36188659 0 61
-0.9234941 0.94940704 0.36871067 0 61
-0.94430256 0.94721359 0.37234014 0 61
-0.9682796 0.94766921 0.37717104 0 61
-1.0045835 0.95930254 0.38668826 0 61
-1.0193005 0.94967115 0.38782889 0 61
-1.0411677 0.94639945 0.39169157 0 61
-1.075615 0.95382398 0.40020818 0 61
-1.09759 0.9494611 0.40400994 0 61
-1.1257733 0.94989395 0.41005352 0 61
-1.1536604 0.94938797 0.4159275 0 61
-1.1739055 0.94208038 0.4190183 0 61
-1.204968 0.94288719 0.42593518 0 61
-1.2352849 0.94235325 0.43252298 0 61
-1.2667167 0.94191957 0.43943986 0 61
-1.2965548 0.93957281 0.44574934 0 61
-1.3234731 0.93447864 0.45101917 0 61
-1.134674 0.78044271 0.38337997 0 61
-1.1448311 0.76686555 0.38359669 0 61
-1.1757507 0.76680356 0.39076802 0 61
-1.1989758 0.76110363 0.39534661 0 61
-1.2432315 0.76791543 0.40679502 0 61
-1.2691357 0.76251847 0.41217193 0 61
-1.3016212 0.76041305 0.41965368 0 61
0.085980549 0.96193242 0.27845657 0 62
0.073082641 0.94909996 0.27446097 0 62
0.060849763 0.94130033 0.27196854 0 62
0.049020525 0.93718165 0.27058393 0 62
0.037541661 0.938914 0.27093032 0 62
