# .PCD v0.7 - Point Cloud Data file format
VERSION 0.7
FIELDS x y z intensity ring
SIZE 4 4 4 4 2
TYPE F F F F U
COUNT 1 1 1 1 1
WIDTH 1270
HEIGHT 1
VIEWPOINT 0 0 0 1 0 0 0
POINTS 1270
DATA ascii
-6.6895871 6.3880582 -1.5903414 0 13
-6.8046722 6.3398385 -1.5990471 0 13
-6.8467741 6.2235732 -1.5908369 0 13
-6.9584646 6.1705632 -1.5990375 0 13
-6.9707284 6.0299711 -1.584697 0 13
-7.0783229 5.9724774 -1.5923411 0 13
-7.1160254 5.856029 -1.5845038 0 13
-7.2260103 5.7990036 -1.5929955 0 13
-7.3334327 5.7384095 -1.6010005 0 13
-7.368114 5.620862 -1.5933622 0 13
-7.4003859 5.5028629 -1.5855885 0 13
-7.524364 5.452672 -1.5976652 0 13
-7.5344944 5.3199601 -1.5858063 0 13
-7.6686969 5.2746239 -1.60028 0 13
-7.7044487 5.1608281 -1.5943775 0 13
-7.7454033 5.0514135 -1.5898784 0 13
-7.8442397 4.9794831 -1.5974771 0 13
-7.8863096 4.8711915 -1.5937257 0 13
-7.9278703 4.7632003 -1.590168 0 13
-7.971056 4.6567273 -1.5872247 0 13
-8.085022 4.5909104 -1.5985563 0 13
-8.1258469 4.4828715 -1.5956086 0 13
-8.1736832 4.3790483 -1.5943078 0 13
-8.2198992 4.2745724 -1.5929495 0 13
-8.2783222 4.1764541 -1.5941987 0 13
-8.3081789 4.0641432 -1.5902042 0 13
-8.3573627 3.961607 -1.5901741 0 13
-8.4096022 3.8604593 -1.5909612 0 13
-8.4730711 3.7641582 -1.5940914 0 13
-8.519907 3.6602056 -1.5943148 0 13
-8.5620365 3.5542462 -1.5938996 0 13
-8.6263151 3.4572089 -1.597831 0 13
-8.6787701 3.3549795 -1.5997846 0 13
-8.6719923 3.2303689 -1.5910928 0 13
-8.7266417 3.1290863 -1.5939397 0 13
-8.7914715 3.0308647 -1.5988528 0 13
-8.7787619 2.9062152 -1.5899221 0 13
-8.8513603 2.8099699 -1.5966918 0 13
-8.9048452 2.7068844 -1.6002147 0 13
-8.9111586 2.5895483 -1.5955065 0 13
-8.9171944 2.4728162 -1.5910226 0 13
-8.9907522 2.3745627 -1.5988164 0 13
-9.0029707 2.2597463 -1.5959274 0 13
-9.0030432 2.1424463 -1.5911498 0 13
-9.0359497 2.0332172 -1.5924265 0 13
-9.0580568 1.9214929 -1.5920383 0 13
-9.0975399 1.8132709 -1.5949383 0 13
-9.1054211 1.6987139 -1.5925375 0 13
-9.1463194 1.5902286 -1.59615 0 13
-9.1668701 1.4779217 -1.5964442 0 13
-9.192812 1.3663563 -1.5979153 0 13
-9.1941214 1.2512088 -1.595348 0 13
-9.2433157 1.1423318 -1.6013256 0 13
-9.2349348 1.0261794 -1.5975668 0 13
-9.2239809 0.91029614 -1.5936152 0 13
-9.2269678 0.79616559 -1.5923194 0 13
-9.253479 0.68394232 -1.5953225 0 13
-9.2601357 0.57004929 -1.5951412 0 13
-9.2834063 0.45698276 -1.598061 0 13
-9.2693691 0.34210417 -1.5947999 0 13
-9.2888365 0.22849904 -1.597545 0 13
-9.279706 0.11413226 -1.5956128 0 13
-9.2828274 2.4632815e-05 -1.5960286 0 13
-9.8609018 -2.6166788e-05 -1.6021242 0 14
-9.8732347 -0.12143214 -1.6042492 0 14
-9.8826542 -0.24310653 -1.6061441 0 14
-9.8556252 -0.36374107 -1.6023571 0 14
-9.8334141 -0.48405728 -1.5995927 0 14
-9.8384209 -0.60564822 -1.6014975 0 14
-9.8375769 -0.72711414 -1.6026944 0 14
-9.8231468 -0.84760797 -1.6019205 0 14
-9.8316088 -0.97026175 -1.6051247 0 14
-9.7807074 -1.0868254 -1.5988754 0 14
-9.7979412 -1.210875 -1.6040056 0 14
-9.7576237 -1.3278947 -1.5999572 0 14
-9.771348 -1.4523458 -1.6050146 0 14
-9.7540426 -1.5725881 -1.605227 0 14
-9.7297211 -1.6916618 -1.6045264 0 14
-9.6978569 -1.8092393 -1.6028193 0 14
-9.6765881 -1.9286836 -1.6031026 0 14
-9.6729012 -2.0519202 -1.6065503 0 14
-9.6610708 -2.1738784 -1.6089035 0 14
-9.5715008 -2.2777216 -1.5985305 0 14
-9.5642834 -2.4006357 -1.6021339 0 14
-9.5644588 -2.5260854 -1.6072452 0 14
-9.4827232 -2.6296422 -1.598823 0 14
-9.4885187 -2.7573271 -1.6053953 0 14
-9.4235554 -2.8645613 -1.6002425 0 14
-9.4372253 -2.9959598 -1.6086981 0 14
-9.3661346 -3.1006653 -1.6029578 0 14
-2.0652504 -0.71199626 -0.35492676 0 14
-1.9930645 -0.71464735 -0.34400538 0 14
-1.9242034 -0.71677727 -0.33361593 0 14
-1.8603379 -0.71915668 -0.32405171 0 14
-1.792852 -0.71852976 -0.31381169 0 14
-1.782144 -0.73979807 -0.31350595 0 14
-1.7956654 -0.77142918 -0.31752929 0 14
-1.7793856 -0.79049128 -0.31634542 0 14
-1.8422886 -0.84570944 -0.3293525 0 14
-1.7917829 -0.84935153 -0.32216614 0 14
-1.7361314 -0.84926993 -0.31401384 0 14
-1.7171586 -0.86631483 -0.31248534 0 14
-1.6977797 -0.88289195 -0.31091094 0 14
-1.8130165 -0.97132313 -0.33417603 0 14
-1.7949485 -0.99023813 -0.33306488 0 14
-1.7959281 -1.0197802 -0.33554813 0 14
-1.788903 -1.0450854 -0.33661115 0 14
-1.7831084 -1.071322 -0.33797404 0 14
-1.7743504 -1.0959754 -0.33884284 0 14
-1.7582848 -1.1161501 -0.3383702 0 14
-1.7519979 -1.1426216 -0.3398385 0 14
-1.7366964 -1.1633269 -0.33961952 0 14
-1.7349921 -1.1933489 -0.34212995 0 14
-1.716079 -1.2116899 -0.34131268 0 14
-1.7094332 -1.2387729 -0.34299457 0 14
-1.6989242 -1.2633052 -0.34397686 0 14
-1.7072347 -1.3023864 -0.34887558 0 14
-1.702531 -1.3322302 -0.35123542 0 14
-1.6988651 -1.3633699 -0.35391095 0 14
-1.7105728 -1.407691 -0.35992873 0 14
-1.8858148 -1.5911943 -0.40088877 0 14
-1.3873491 -1.200115 -0.2980389 0 14
-1.3818088 -1.2253476 -0.30006289 0 14
-1.3675196 -1.2430465 -0.30025646 0 14
-1.3471758 -1.255149 -0.29915583 0 14
-1.3616606 -1.3002846 -0.30589971 0 14
-1.3405226 -1.3119888 -0.30475226 0 14
-1.3269184 -1.3310089 -0.30535719 0 14
-1.3233887 -1.3605225 -0.30837151 0 14
-1.3051504 -1.3752059 -0.30803877 0 14
-1.2832057 -1.3858175 -0.30685812 0 14
-1.2830182 -1.4202522 -0.31096601 0 14
-1.2558401 -1.4250062 -0.30860245 0 14
-1.2517457 -1.4560688 -0.31197253 0 14
-1.2274669 -1.4638588 -0.31038424 0 14
-1.2213604 -1.4934963 -0.31346023 0 14
-1.2214973 -1.5317152 -0.31830519 0 14
-1.1956276 -1.5376874 -0.31646717 0 14
-1.1869687 -1.5659108 -0.31924775 0 14
-1.1662041 -1.5784634 -0.31885919 0 14
-1.1492634 -1.5962325 -0.31956977 0 14
-1.129724 -1.6104908 -0.31961903 0 14
-1.1154826 -1.6325225 -0.32124496 0 14
-1.0984789 -1.6508536 -0.32216981 0 14
-1.0844872 -1.6740984 -0.32407919 0 14
-1.3261009 -2.103303 -0.40397924 0 14
-1.2929996 -2.10781 -0.40176076 0 14
-1.2758775 -2.1384528 -0.4045805 0 14
-1.2428916 -2.1426077 -0.40244469 0 14
-1.2160037 -2.1569307 -0.40229604 0 14
-1.1927009 -2.1777623 -0.4034155 0 14
-1.1680065 -2.1963482 -0.40416729 0 14
-1.1270267 -2.1836383 -0.39924812 0 14
-1.09588 -2.1889167 -0.39771929 0 14
-1.0663012 -2.1969059 -0.39675856 0 14
-1.040867 -2.2133775 -0.39739177 0 14
-1.0172997 -2.2341912 -0.39885262 0 14
-0.99864393 -2.2667129 -0.40243584 0 14
-0.97311544 -2.2844958 -0.40343809 0 14
-0.93684268 -2.2765801 -0.39997557 0 14
-0.9188084 -2.313174 -0.40438926 0 14
-0.87988979 -2.2971258 -0.39966205 0 14
-0.85420215 -2.3148799 -0.40089318 0 14
-0.82572812 -2.3253577 -0.40091902 0 14
-0.80146873 -2.3482103 -0.40312943 0 14
-0.77028948 -2.3510318 -0.40195733 0 14
-0.73786676 -2.3493173 -0.40008274 0 14
-0.70784926 -2.3546343 -0.39947575 0 14
-0.6816119 -2.3727944 -0.40110442 0 14
-0.65861779 -2.4037414 -0.40493616 0 14
-0.62212557 -2.3852522 -0.40050244 0 14
-0.59283924 -2.3930793 -0.40056235 0 14
-0.56762278 -2.4183052 -0.40358597 0 14
-2.1165323 -9.543273 -1.5881937 0 14
-2.0070519 -9.6069603 -1.5945648 0 14
-1.8775212 -9.5735149 -1.5850618 0 14
-1.7690274 -9.6469173 -1.5934927 0 14
-1.6506784 -9.6702757 -1.5938779 0 14
-1.5268379 -9.6593828 -1.5888679 0 14
-1.4149375 -9.725419 -1.5967474 0 14
-1.2873172 -9.6824055 -1.5869665 0 14
-1.1730118 -9.7376995 -1.5935448 0 14
-1.0475194 -9.6988573 -1.5849607 0 14
-0.93537545 -9.7862062 -1.5972346 0 14
-0.81041574 -9.7421246 -1.5882933 0 14
-0.68856198 -9.7230005 -1.5836754 0 14
-0.5718267 -9.7797527 -1.5916536 0 14
-0.44990489 -9.7506924 -1.5859036 0 14
-0.33205837 -9.816906 -1.5958883 0 14
-0.21055551 -9.7842989 -1.5900464 0 14
-0.090001151 -9.7606421 -1.5859022 0 14
0.02992893 -9.7320375 -1.5811949 0 14
0.027322007 -1.7773473 -0.28880396 0 14
0.049246594 -1.7795223 -0.28923392 0 14
0.071032733 -1.7765231 -0.28886658 0 14
0.091774039 -1.7545497 -0.28545558 0 14
0.1144854 -1.7710034 -0.28833973 0 14
0.13639793 -1.7713546 -0.28864816 0 14
0.15976897 -1.7874618 -0.29157099 0 14
0.18124421 -1.7805436 -0.29078403 0 14
0.2026052 -1.7736454 -0.29004243 0 14
0.22474748 -1.7737799 -0.29049438 0 14
1.3402165 -9.6266937 -1.5791564 0 14
1.4610661 -9.6265221 -1.5819559 0 14
1.5820934 -9.6247082 -1.5847349 0 14
0.31503701 -1.7795421 -0.2936222 0 14
0.33811679 -1.7819805 -0.29468825 0 14
0.34306785 -1.6940694 -0.28082669 0 14
0.29625925 -1.3757501 -0.22864532 0 14
0.29464084 -1.290899 -0.21512924 0 14
0.29107851 -1.2067024 -0.20167904 0 14
0.29319435 -1.1530882 -0.19330631 0 14
0.29395944 -1.0993193 -0.18488437 0 14
0.29433832 -1.0488838 -0.17699741 0 14
0.29331613 -0.99790722 -0.16899106 0 14
0.34642214 -1.1271679 -0.19158766 0 14
0.34067044 -1.061783 -0.18117233 0 14
0.3441551 -1.0289763 -0.1762833 0 14
0.35919121 -1.0315893 -0.1774742 0 14
0.37037826 -1.0230353 -0.17677273 0 14
0.38844103 -1.0330632 -0.17931725 0 14
0.40646297 -1.041921 -0.18170862 0 14
0.71808958 -1.7759317 -0.31123474 0 14
0.73678482 -1.7595968 -0.30993637 0 14
0.76750076 -1.7714928 -0.31367037 0 14
0.79695213 -1.7791743 -0.31674173 0 14
4.0886946 -8.8350887 -1.5817187 0 14
4.192657 -8.7750206 -1.5800751 0 14
4.2907195 -8.7035074 -1.5765793 0 14
4.4078155 -8.6705627 -1.5803101 0 14
4.5251813 -8.6368771 -1.5841925 0 14
4.6254797 -8.5702925 -1.5822923 0 14
4.7262201 -8.5050592 -1.5808587 0 14
4.8162122 -8.4214306 -1.5762032 0 14
4.9351602 -8.3883743 -1.5812547 0 14
0.97238612 -1.6072321 -0.30520296 0 14
0.9655236 -1.5524635 -0.29703486 0 14
0.96835929 -1.5151588 -0.29215345 0 14
0.97326803 -1.4823513 -0.28811333 0 14
0.96769649 -1.4350895 -0.28121892 0 14
0.97409725 -1.4069473 -0.27803037 0 14
0.96531618 -1.3582705 -0.27073643 0 14
0.97038645 -1.3304529 -0.26754987 0 14
0.99243343 -1.3261199 -0.26911226 0 14
1.0178033 -1.3257216 -0.27155069 0 14
1.0324705 -1.3111305 -0.27114195 0 14
1.0675325 -1.3218874 -0.27606022 0 14
1.0807877 -1.3051385 -0.27531704 0 14
0.70813531 -0.83403838 -0.17776258 0 14
0.71507108 -0.82151669 -0.17695446 0 14
0.72791815 -0.81580055 -0.17763779 0 14
0.74368334 -0.81311882 -0.17903154 0 14
0.74134052 -0.79080927 -0.17611325 0 14
0.75381374 -0.78455454 -0.17677122 0 14
0.77478027 -0.78677988 -0.17940564 0 14
0.77955061 -0.77239358 -0.1782975 0 14
0.78601384 -0.75987434 -0.17762525 0 14
0.79751241 -0.75224161 -0.17811994 0 14
0.79415375 -0.7308318 -0.17534943 0 14
0.81003356 -0.72725523 -0.17686778 0 14
0.82591778 -0.72337437 -0.17838037 0 14
0.83527893 -0.71361679 -0.17849348 0 14
0.83937538 -0.69944721 -0.17751753 0 14
0.85314745 -0.69332844 -0.1786136 0 14
0.86554533 -0.68590647 -0.17942987 0 14
0.86085647 -0.665124 -0.17674904 0 14
0.87794256 -0.66124737 -0.17857417 0 14
0.88668561 -0.65090108 -0.17871103 0 14
0.89527422 -0.64041632 -0.17884137 0 14
0.90409565 -0.63006723 -0.17904232 0 14
0.91390377 -0.62034875 -0.1794605 0 14
0.9201827 -0.60821921 -0.1792113 0 14
0.92819077 -0.59724462 -0.17932707 0 14
0.92888004 -0.58166397 -0.17806493 0 14
0.92759043 -0.56509906 -0.17647231 0 14
0.94747388 -0.56135648 -0.17892835 0 14
0.96195829 -0.55407286 -0.1803634 0 14
0.95214486 -0.53293788 -0.17728132 0 14
0.95458472 -0.5189935 -0.17653403 0 14
0.96048188 -0.50699961 -0.17645833 0 14
0.96437252 -0.49398857 -0.17604384 0 14
0.97658634 -0.48518038 -0.17717096 0 14
0.98750943 -0.47555903 -0.17807828 0 14
0.98507869 -0.45955411 -0.17660755 0 14
0.99232215 -0.44816038 -0.17690483 0 14
0.99236971 -0.4335714 -0.17594954 0 14
1.0104955 -0.42677236 -0.17821939 0 14
1.0056428 -0.41022655 -0.1764605 0 14
0.68544334 -0.26982731 -0.11968375 0 14
0.69338334 -0.26315293 -0.12049602 0 14
0.72146708 -0.2637091 -0.12480346 0 14
0.70217508 -0.24691349 -0.12093187 0 14
0.71521914 -0.2416607 -0.12265732 0 14
0.71646404 -0.23230618 -0.12237168 0 14
0.72582841 -0.22551821 -0.12348813 0 14
0.71923906 -0.21380989 -0.12191054 0 14
0.7134614 -0.20257878 -0.1204999 0 14
0.72720671 -0.19685224 -0.12240334 0 14
0.73349261 -0.18890564 -0.12306109 0 14
0.72924525 -0.17828004 -0.12197147 0 14
0.74007148 -0.17131148 -0.12342057 0 14
0.71247047 -0.15571831 -0.11848932 0 14
0.70878488 -0.14580537 -0.11756931 0 14
0.70633525 -0.13627133 -0.1168762 0 14
0.70958841 -0.12787017 -0.11714546 0 14
0.72996223 -0.12229466 -0.12025162 0 14
0.71379119 -0.1105805 -0.11735477 0 14
0.71412677 -0.1016576 -0.11719557 0 14
1.0819207 -0.14046425 -0.17725749 0 14
1.0866637 -0.12751432 -0.17776424 0 14
1.0819983 -0.11349834 -0.17675938 0 14
0.79258692 -0.073299386 -0.12932299 0 14
0.90606308 -0.072569892 -0.14768165 0 14
1.0661 -0.072207451 -0.17360866 0 14
1.2513546 -0.06930986 -0.20362218 0 14
1.6091337 -0.06929262 -0.26168206 0 14
9.7236233 -0.29899475 -1.580567 0 14
9.733901 -0.17955026 -1.5817591 0 14
9.7188015 -0.05975122 -1.5790666 0 14
9.7244892 0.059786193 -1.5799909 0 14
9.7165813 0.17923078 -1.5789447 0 14
9.7339745 0.29931304 -1.5822495 0 14
9.6339092 0.41485605 -1.5666947 0 14
9.6238203 0.53304285 -1.5660017 0 14
9.6282597 0.65212649 -1.5679103 0 14
9.6227865 0.770724 -1.5684438 0 14
9.6276789 0.89037931 -1.570907 0 14
9.6207399 1.0091863 -1.5716807 0 14
9.6124496 1.1279709 -1.5724735 0 14
9.622016 1.2492127 -1.576432 0 14
9.6208553 1.3695511 -1.5788816 0 14
9.6125822 1.4891809 -1.5804096 0 14
9.5273647 1.5961726 -1.5695071 0 14
9.5116949 1.7140387 -1.5702791 0 14
9.5217705 1.8370092 -1.5755526 0 14
9.5195971 1.958293 -1.5790581 0 14
9.4103422 2.0567343 -1.5650121 0 14
9.4142542 2.1792083 -1.5700006 0 14
9.4085064 2.3001161 -1.5736398 0 14
9.4294186 2.4284778 -1.5820127 0 14
9.3163271 2.5218961 -1.5681229 0 14
9.3219042 2.6468427 -1.5744209 0 14
9.3181658 2.7700331 -1.5794228 0 14
9.2310581 2.8681321 -1.5705174 0 14
9.2227364 2.9903786 -1.5752386 0 14
9.2128811 3.1128802 -1.5799736 0 14
9.1208735 3.2072723 -1.5708394 0 14
9.1216745 3.3341351 -1.5779189 0 14
9.0257635 3.4254589 -1.5684954 0 14
9.0298901 3.5546496 -1.5766892 0 14
8.9476318 3.6499603 -1.5700443 0 14
8.9340744 3.7732141 -1.5756876 0 14
8.8462458 3.8649697 -1.5684607 0 14
8.8439741 3.9941854 -1.5766469 0 14
8.7596245 4.0864973 -1.570449 0 14
8.7602549 4.2187123 -1.579743 0 14
8.6754704 4.3100829 -1.5738921 0 14
8.5808077 4.3954186 -1.5664054 0 14
8.5881367 4.5333309 -1.5778 0 14
8.5165157 4.6303024 -1.5749831 0 14
8.4265051 4.7165132 -1.568944 0 14
8.4245539 4.8524108 -1.5795709 0 14
8.3526964 4.9487805 -1.5773882 0 14
8.2748022 5.0411072 -1.5742652 0 14
8.2032442 5.1368656 -1.5725498 0 14
8.126298 5.228869 -1.5700063 0 14
8.1155748 5.3642049 -1.5805587 0 14
8.0522175 5.4657645 -1.5811893 0 14
7.9647408 5.5506544 -1.5772952 0 14
7.899291 5.650598 -1.5779746 0 14
7.8289933 5.7471333 -1.5779296 0 14
7.7785559 5.8586402 -1.582164 0 14
7.6888833 5.9406662 -1.5786635 0 14
7.6353397 6.0506697 -1.5828264 0 14
7.5021672 6.096796 -1.570642 0 14
7.432157 6.1931787 -1.5718094 0 14
7.3783774 6.3036838 -1.5767096 0 14
7.3165684 6.4081659 -1.5802205 0 14
7.1903148 6.4555273 -1.5699781 0 14
7.1396441 6.5703635 -1.5764359 0 14
7.0714183 6.6700087 -1.5793617 0 14
6.969779 6.7379932 -1.575047 0 14
6.9000397 6.8366909 -1.5781655 0 14
6.8094583 6.9149218 -1.5767765 0 14
6.6924381 6.9653587 -1.5693936 0 14
6.6539884 7.098001 -1.5807251 0 14
6.5590997 7.1715031 -1.579013 0 14
6.4596887 7.2395744 -1.5763925 0 14
6.3596702 7.3063712 -1.5737903 0 14
6.280654 7.3973241 -1.576627 0 14
6.1896267 7.474474 -1.5767293 0 14
6.1018348 7.5556836 -1.5779134 0 14
6.0165634 7.6404123 -1.5800382 0 14
5.9332199 7.7282104 -1.5829874 0 14
5.8130355 7.7675552 -1.5762861 0 14
5.7447929 7.8764257 -1.5839244 0 14
5.6308031 7.9229522 -1.5792376 0 14
5.5298996 7.9871664 -1.578364 0 14
5.4230819 8.0424051 -1.5759829 0 14
5.3293381 8.1169329 -1.5776265 0 14
5.2367563 8.1937742 -1.5799264 0 14
5.1394653 8.2637367 -1.5811113 0 14
5.0264854 8.3081484 -1.5776637 0 14
4.9437871 8.4030371 -1.5840188 0 14
4.813436 8.4165773 -1.5752947 0 14
4.7168612 8.4882174 -1.5777283 0 14
4.6330743 8.5843639 -1.5848904 0 14
4.5126362 8.6129332 -1.5798007 0 14
4.4010015 8.6571589 -1.5778673 0 14
4.303174 8.7287712 -1.5811557 0 14
4.1882401 8.7657766 -1.5784106 0 14
4.0917549 8.8417015 -1.5829024 0 14
3.9800839 8.8854313 -1.5818501 0 14
3.8649497 8.9208126 -1.5795686 0 14
3.769002 9.0011683 -1.5854708 0 14
3.6530414 9.034461 -1.5833031 0 14
3.5302889 9.04949 -1.57821 0 14
3.4358749 9.1377468 -1.5861137 0 14
3.3300176 9.1979628 -1.5893381 0 14
3.2116807 9.223877 -1.586872 0 14
3.1015835 9.2733068 -1.5886945 0 14
2.9661541 9.2447462 -1.5774337 0 14
2.8591835 9.3030434 -1.5812624 0 14
2.7506921 9.358284 -1.584783 0 14
2.6409271 9.411026 -1.5880952 0 14
2.511595 9.3926048 -1.5796555 0 14
2.4133928 9.4915018 -1.5911769 0 14
2.2855306 9.4749527 -1.5835714 0 14
2.1768939 9.5375452 -1.5894387 0 14
2.0528882 9.5330725 -1.5843668 0 14
1.9310169 9.5353632 -1.5806817 0 14
1.8231302 9.6084633 -1.588963 0 14
1.7025696 9.6172647 -1.5868365 0 14
1.5842304 9.6377087 -1.5868754 0 14
1.4594303 9.6157455 -1.5801848 0 14
1.3430885 9.6473236 -1.5825405 0 14
1.2242185 9.6619282 -1.5823473 0 14
1.10405 9.6650686 -1.5805187 0 14
0.99306893 9.7559118 -1.593257 0 14
0.86491859 9.676528 -1.5784364 0 14
0.74568981 9.6840258 -1.5780444 0 14
0.62861174 9.7241526 -1.583204 0 14
0.50896257 9.730422 -1.583086 0 14
0.39074519 9.7725067 -1.5890312 0 14
0.27087119 9.7879114 -1.5908741 0 14
0.15059721 9.796629 -1.5918697 0 14
0.029962011 9.742795 -1.5829426 0 14
-0.089933604 9.7533169 -1.584712 0 14
-0.21055822 9.7844248 -1.5900669 0 14
-0.33210811 9.8183765 -1.5961274 0 14
-0.44998789 9.752491 -1.5861962 0 14
-0.57243747 9.7901993 -1.5933537 0 14
-0.68718338 9.7035332 -1.5805047 0 14
-0.8115688 9.7559853 -1.5905532 0 14
-0.93326741 9.7641516 -1.593635 0 14
-1.0487742 9.7104759 -1.5868593 0 14
-1.1723793 9.7324495 -1.5926856 0 14
-1.2873548 9.6826887 -1.587013 0 14
-1.4133557 9.7145462 -1.5949625 0 14
-1.5258327 9.6530237 -1.5878218 0 14
-1.6530803 9.6843472 -1.5961972 0 14
-1.7643369 9.6213398 -1.5892677 0 14
-1.876186 9.5667076 -1.5839347 0 14
-2.0059457 9.6016655 -1.593686 0 14
-2.1151106 9.5368614 -1.5871266 0 14
-2.2479713 9.5772772 -1.598332 0 14
-2.359971 9.5263557 -1.5945563 0 14
-2.4671464 9.4591293 -1.5882616 0 14
-2.6009488 9.4926195 -1.5991341 0 14
-2.7121141 9.4412804 -1.5959829 0 14
-2.8166912 9.3696194 -1.5896037 0 14
-2.9219284 9.3032207 -1.5843147 0 14
-3.0643468 9.3528166 -1.5990568 0 14
-3.1701338 9.2881241 -1.5945405 0 14
-3.2839949 9.2481575 -1.594491 0 14
-3.3902552 9.187561 -1.5911108 0 14
-3.4933445 9.1200647 -1.586741 0 14
-3.6396966 9.163229 -1.6019164 0 14
-3.7450206 9.1006098 -1.5988989 0 14
-3.8522484 9.0435772 -1.5970805 0 14
-3.9554362 8.978013 -1.5939708 0 14
-4.0566082 8.9091129 -1.5904741 0 14
-4.1687903 8.8648272 -1.591599 0 14
-4.2657957 8.7888412 -1.587254 0 14
-4.3785915 8.7458229 -1.5890887 0 14
-4.4798694 8.6798429 -1.5869893 0 14
-4.6335883 8.7131128 -1.6033684 0 14
-4.7439442 8.6620064 -1.6045772 0 14
-4.8400526 8.5852194 -1.6012566 0 14
-4.9484653 8.5306072 -1.6022987 0 14
-5.0605097 8.48174 -1.6046866 0 14
-5.1658983 8.4212952 -1.6051475 0 14
-5.2672353 8.3542595 -1.6045941 0 14
-5.3128285 8.201293 -1.5876417 0 14
-5.4202075 8.1457815 -1.5896776 0 14
-5.5209565 8.0799866 -1.5899659 0 14
-5.6363111 8.0349073 -1.5946127 0 14
-5.7343121 7.964489 -1.5945108 0 14
-5.842721 7.9081535 -1.5974951 0 14
-5.9421439 7.8391852 -1.5982022 0 14
-6.0464644 7.7763119 -1.6004211 0 14
-6.1515899 7.7138801 -1.6030189 0 14
-6.1960459 7.5766101 -1.5902056 0 14
-6.3075953 7.5223446 -1.5949743 0 14
-6.4104142 7.456789 -1.5976672 0 14
-6.5205054 7.3988409 -1.6023092 0 14
-6.6339903 7.343574 -1.6078849 0 14
-6.657248 7.1895957 -1.5919744 0 14
-6.7757277 7.1394229 -1.5991926 0 14
-6.8782063 7.0712061 -1.6027361 0 14
-6.9068666 6.9281583 -1.5894432 0 14
-7.0162225 6.866878 -1.5950568 0 14
-7.1398482 6.8180242 -1.6039809 0 14
-7.1648908 6.6754503 -1.591046 0 14
-7.2840428 6.6210413 -1.5993049 0 14
-7.3881931 6.5516338 -1.6043628 0 14
-7.4248657 6.4228187 -1.5950555 0 14
-7.5356135 6.358326 -1.6019298 0 14
-7.5674787 6.2275457 -1.5923045 0 14
-7.6910062 6.1721716 -1.6022058 0 14
-7.7897348 6.0954661 -1.6070373 0 14
-7.8357654 5.9776158 -1.6012485 0 14
-7.9408622 5.9047561 -1.6077662 0 14
-7.9902487 5.7902837 -1.6032283 0 14
-8.0142632 5.6587152 -1.5939648 0 14
-8.1201677 5.5851512 -1.6012479 0 14
-8.1610098 5.4666557 -1.5959256 0 14
-8.2800837 5.4001217 -1.6061043 0 14
-8.3197899 5.2813597 -1.6010882 0 14
-8.366478 5.1677804 -1.5977234 0 14
-8.4776726 5.0935311 -1.6068757 0 14
-8.5218201 4.9784865 -1.6035188 0 14
-8.5614939 4.8614645 -1.5996147 0 14
-8.6041393 4.7467365 -1.5965567 0 14
-8.7086096 4.6656351 -1.6051749 0 14
-8.7625675 4.5567751 -1.6046711 0 14
-8.8135929 4.4465008 -1.6038814 0 14
-8.8551664 4.3317146 -1.6016326 0 14
-8.9108686 4.2239828 -1.6021919 0 14
-8.9387484 4.1033654 -1.5980117 0 14
-8.9865789 3.9922838 -1.5976657 0 14
-9.0609617 3.8926461 -1.6022588 0 14
-9.0956831 3.7757721 -1.6000677 0 14
-9.1634312 3.6724713 -1.6039202 0 14
-9.2107229 3.5606182 -1.6044132 0 14
-9.2646065 3.4511213 -1.6062857 0 14
-9.2501678 3.3168056 -1.5965903 0 14
-9.306778 3.2085171 -1.5994307 0 14
-9.3570938 3.0976725 -1.6014105 0 14
-9.415329 2.9890084 -1.6049656 0 14
-9.4305325 2.8666823 -1.6014274 0 14
-9.4846306 2.756197 -1.6047374 0 14
-9.4983177 2.6339667 -1.6014521 0 14
-9.557519 2.5242527 -1.606079 0 14
-9.5807543 2.4047699 -1.6048931 0 14
-9.5672283 2.276705 -1.5978169 0 14
-9.6566763 2.1728895 -1.6081717 0 14
-9.6607285 2.0493381 -1.6045287 0 14
-9.6700649 1.9273834 -1.6020218 0 14
-9.7060022 1.8107588 -1.6041656 0 14
-9.7156544 1.6892163 -1.6022067 0 14
-9.7481422 1.5716368 -1.6042559 0 14
-9.7818747 1.4539105 -1.6067437 0 14
-9.765008 1.3288996 -1.6011682 0 14
-9.7864761 1.2094581 -1.6021285 0 14
-9.7889614 1.0877426 -1.6002247 0 14
-9.8272572 0.96983218 -1.6044142 0 14
-9.8171682 0.84709215 -1.6009456 0 14
-9.8235865 0.72608012 -1.6004152 0 14
-9.8342018 0.60538852 -1.6008109 0 14
-9.8546314 0.48510173 -1.6030442 0 14
-9.8707237 0.36429831 -1.6048119 0 14
-9.8833084 0.24312264 -1.6062505 0 14
-9.8669586 0.12135496 -1.6032296 0 14
-9.8742838 2.6202299e-05 -1.6042984 0 14
-10.506491 -2.7879918e-05 -1.6079087 0 15
-10.531528 -0.12952858 -1.6118624 0 15
-10.504725 -0.25840902 -1.6081246 0 15
-10.48414 -0.38693768 -1.6055807 0 15
-10.491979 -0.51647568 -1.607632 0 15
-10.459692 -0.64389336 -1.6037768 0 15
-10.48371 -0.77487105 -1.6087989 0 15
-10.484035 -0.90463394 -1.6104341 0 15
-10.444448 -1.0307416 -1.6061786 0 15
-10.491129 -1.165767 -1.6154397 0 15
-10.431133 -1.2891278 -1.6085207 0 15
-10.396027 -1.4147736 -1.6056683 0 15
-10.447782 -1.5528862 -1.6164889 0 15
-10.410619 -1.6784441 -1.6138103 0 15
-10.394838 -1.8073027 -1.614687 0 15
-10.374569 -1.9354872 -1.6151134 0 15
-10.277582 -2.0484705 -1.6038146 0 15
-10.287615 -2.1823201 -1.6094462 0 15
-10.275208 -2.312068 -1.6118311 0 15
-10.202804 -2.4279523 -1.6050352 0 15
-10.192655 -2.558357 -1.6082659 0 15
-10.198191 -2.6934614 -1.6142433 0 15
-10.143224 -2.8128049 -1.6108958 0 15
-10.075265 -2.9278331 -1.6056991 0 15
-10.083567 -3.0651908 -1.6129071 0 15
-10.015516 -3.1795449 -1.6081543 0 15
-9.9554901 -3.2957721 -1.6049019 0 15
-9.9697247 -3.4370685 -1.6138879 0 15
-1.9809396 -0.71029973 -0.32206184 0 15
-1.9138021 -0.71290272 -0.31254819 0 15
-1.8489728 -0.71476322 -0.30337316 0 15
-1.8342156 -0.73510718 -0.30241212 0 15
-1.8390073 -0.763403 -0.30472678 0 15
-1.8204904 -0.78209412 -0.30322912 0 15
-1.8444138 -0.81938004 -0.30886877 0 15
-1.7818338 -0.8179574 -0.30005068 0 15
-1.7752404 -0.84151 -0.30066013 0 15
-1.7251873 -0.84391636 -0.29391828 0 15
-1.7274362 -0.87149996 -0.29610479 0 15
-1.9018232 -0.98900014 -0.32805672 0 15
-1.8874853 -1.0112197 -0.32770362 0 15
-1.8817557 -1.038128 -0.32890031 0 15
-1.8831484 -1.0693064 -0.33141685 0 15
-1.863161 -1.0884672 -0.33022979 0 15
-1.8556631 -1.1149142 -0.33130568 0 15
-1.8660001 -1.1525851 -0.3356562 0 15
-1.8313421 -1.1625265 -0.33196822 0 15
-1.8242333 -1.1897323 -0.33330631 0 15
-1.823382 -1.2213932 -0.33586949 0 15
-1.816102 -1.2491373 -0.33733231 0 15
-1.8049923 -1.27447 -0.33815411 0 15
-1.7853062 -1.2937557 -0.33742088 0 15
-1.7724544 -1.3179817 -0.33802935 0 15
-1.7623341 -1.3444196 -0.33922645 0 15
-1.759558 -1.3768537 -0.34192511 0 15
-1.74572 -1.4009719 -0.34255782 0 15
-1.7147923 -1.4111632 -0.33986825 0 15
-1.7143085 -1.4464824 -0.34327167 0 15
-1.6979443 -1.4687928 -0.34358546 0 15
-1.6994359 -1.5070101 -0.34761083 0 15
-1.7031959 -1.5481691 -0.35224721 0 15
-1.6977059 -1.5817339 -0.35510743 0 15
-1.7056941 -1.628811 -0.3609404 0 15
-1.6928495 -1.6568162 -0.36250609 0 15
-1.3755676 -1.3798079 -0.29817417 0 15
-1.3769674 -1.4156046 -0.30222797 0 15
-1.3663656 -1.4397068 -0.30376369 0 15
-1.341957 -1.4492669 -0.30227628 0 15
-1.3413188 -1.4847888 -0.30622196 0 15
-1.3173096 -1.494756 -0.30491382 0 15
-1.3167651 -1.5317013 -0.30912396 0 15
-1.3019915 -1.5527358 -0.31011456 0 15
-1.2825316 -1.5682973 -0.31004936 0 15
-1.2598517 -1.5798103 -0.30923939 0 15
-1.2508216 -1.6086721 -0.31185469 0 15
-1.2322181 -1.6256063 -0.31217659 0 15
-1.2188853 -1.6497676 -0.31391448 0 15
-1.2206582 -1.695394 -0.31971598 0 15
-1.6175439 -2.305908 -0.43106276 0 15
-1.6127627 -2.3602979 -0.43749002 0 15
-1.6007149 -2.4056408 -0.44221273 0 15
-1.5863602 -2.4488285 -0.44653207 0 15
-5.575151 -8.842639 -1.5997909 0 15
-1.3687458 -2.2312891 -0.40060472 0 15
-1.3477362 -2.2588928 -0.40255481 0 15
-1.3226141 -2.2800407 -0.40339479 0 15
-1.2931561 -2.2937827 -0.40298229 0 15
-1.2607917 -2.3020899 -0.40168771 0 15
-1.2330842 -2.3187215 -0.40191364 0 15
-1.2036226 -2.3320446 -0.40162721 0 15
-1.1800402 -2.3570189 -0.40339884 0 15
-1.1492732 -2.3678534 -0.40280405 0 15
-1.1193324 -2.3802321 -0.40253797 0 15
-1.0895377 -2.3928401 -0.40237403 0 15
-1.0658504 -2.4192576 -0.40458184 0 15
-1.0330362 -2.4251664 -0.40341517 0 15
-0.99819356 -2.4256661 -0.4014262 0 15
-0.96880722 -2.4390502 -0.40163928 0 15
-0.93862545 -2.4504669 -0.40158832 0 15
-0.91187251 -2.4711661 -0.40311253 0 15
-3.5096543 -9.8836432 -1.6051222 0 15
-3.3904564 -9.9336443 -1.6063503 0 15
-3.2432714 -9.8989201 -1.5941657 0 15
-3.125041 -9.9499178 -1.5960693 0 15
-3.0095122 -10.011031 -1.5998154 0 15
-2.8992591 -10.092761 -1.6070576 0 15
-2.7487116 -10.031906 -1.5918655 0 15
-2.6358173 -10.10582 -1.5983305 0 15
-2.5198879 -10.171883 -1.603757 0 15
-2.375355 -10.119984 -1.5908488 0 15
-2.2586193 -10.18393 -1.5964147 0 15
-2.139797 -10.242357 -1.6013278 0 15
-2.0017662 -10.207043 -1.5918379 0 15
-1.8815485 -10.260521 -1.5964493 0 15
-1.7652295 -10.341358 -1.605528 0 15
-1.6282866 -10.301188 -1.5960623 0 15
-1.5075045 -10.361667 -1.6024398 0 15
-1.3700742 -10.304852 -1.5909276 0 15
-1.2511529 -10.386384 -1.6010188 0 15
-1.1171161 -10.343245 -1.5921313 0 15
-0.99392039 -10.398724 -1.5986688 0 15
-0.86251742 -10.368446 -1.5922632 0 15
-0.73931515 -10.439672 -1.6016841 0 15
-0.60820425 -10.401905 -1.5946219 0 15
-0.4776032 -10.350991 -1.5857965 0 15
-0.35278255 -10.429591 -1.5970528 0 15
-0.22350748 -10.386164 -1.589862 0 15
-0.096549228 -10.470782 -1.602512 0 15
0.032043621 -10.419675 -1.59463 0 15
0.027472524 -1.7871387 -0.27353522 0 15
0.049233463 -1.7790477 -0.27236891 0 15
0.070980877 -1.7752261 -0.2718969 0 15
0.092382386 -1.7661803 -0.27066496 0 15
0.11412539 -1.7654343 -0.27074522 0 15
0.13588428 -1.764684 -0.27086592 0 15
0.15912721 -1.7802819 -0.27353975 0 15
0.1791199 -1.7596744 -0.27069137 0 15
0.20210491 -1.7692658 -0.2725285 0 15
0.22612953 -1.7846875 -0.27531147 0 15
1.4292028 -10.265876 -1.5862374 0 15
1.5538484 -10.237836 -1.5847373 0 15
1.681258 -10.227979 -1.5862916 0 15
0.31540903 -1.7816436 -0.27690166 0 15
0.33568215 -1.7691492 -0.2755805 0 15
0.34260026 -1.6917603 -0.26416188 0 15
0.29393432 -1.3649536 -0.21368048 0 15
0.2928727 -1.2831525 -0.20142323 0 15
0.29624894 -1.228137 -0.19334438 0 15
0.29464865 -1.1588078 -0.1829865 0 15
0.29293394 -1.0954841 -0.1735428 0 15
0.29585114 -1.0542748 -0.16757821 0 15
0.29805532 -1.0140307 -0.16175169 0 15
0.34460163 -1.1212445 -0.17951609 0 15
0.34580612 -1.0777895 -0.17322646 0 15
0.3450506 -1.0316538 -0.16648069 0 15
0.35950148 -1.0324805 -0.16731481 0 15
0.39673021 -1.0958229 -0.17835662 0 15
0.40620735 -1.0803128 -0.17663181 0 15
0.42082369 -1.0787332 -0.17720619 0 15
0.44448537 -1.0992719 -0.18146425 0 15
0.44330883 -1.0587145 -0.17565577 0 15
0.76669008 -1.7696217 -0.29514721 0 15
0.79436886 -1.7734075 -0.29738528 0 15
4.36971 -9.4423227 -1.5922869 0 15
4.472465 -9.3606453 -1.5876673 0 15
4.5707231 -9.2714806 -1.5819573 0 15
4.680779 -9.2075062 -1.5807428 0 15
4.7965341 -9.154788 -1.5816983 0 15
4.9177189 -9.1117668 -1.5845933 0 15
5.0403008 -9.070262 -1.5880336 0 15
5.124774 -8.9609699 -1.5798123 0 15
5.2677875 -8.9537468 -1.5898384 0 15
5.3587413 -8.8573256 -1.5842983 0 15
0.97285116 -1.5642456 -0.28191295 0 15
0.96812046 -1.5147851 -0.27512372 0 15
0.9658376 -1.4710343 -0.26931414 0 15
0.96374995 -1.4292367 -0.26381159 0 15
0.97146016 -1.4031383 -0.26117948 0 15
0.98171055 -1.3813387 -0.25934911 0 15
0.96840066 -1.3277303 -0.25150073 0 15
0.98618668 -1.3177727 -0.25189257 0 15
0.72071427 -0.93875366 -0.1811233 0 15
0.724675 -0.92026222 -0.17926128 0 15
0.73689735 -0.91247362 -0.17949562 0 15
0.74431783 -0.89882386 -0.17859745 0 15
0.75827837 -0.89309669 -0.17929861 0 15
0.76595777 -0.87997836 -0.17854236 0 15
0.78722632 -0.88226908 -0.18095748 0 15
0.79335326 -0.86742628 -0.17990044 0 15
0.80582243 -0.85959399 -0.18031746 0 15
0.81795365 -0.85131013 -0.18067595 0 15
0.81979412 -0.83249092 -0.17880781 0 15
0.83742017 -0.82973188 -0.18041329 0 15
0.83781868 -0.80995631 -0.17833997 0 15
0.84711438 -0.79902792 -0.17821379 0 15
0.87056577 -0.8011511 -0.18106124 0 15
0.86043197 -0.77250332 -0.1769646 0 15
0.86478662 -0.75741738 -0.17593141 0 15
0.88640827 -0.75729895 -0.17842215 0 15
0.90613246 -0.75507557 -0.18050984 0 15
0.92056626 -0.7481178 -0.18153888 0 15
0.92299449 -0.73143238 -0.18023045 0 15
0.91821736 -0.70944279 -0.17758077 0 15
0.93303013 -0.70273817 -0.17876083 0 15
0.95311046 -0.69966245 -0.18094602 0 15
0.95458472 -0.68284291 -0.17961827 0 15
0.98470062 -0.68624115 -0.18368332 0 15
0.95654547 -0.64929348 -0.17692864 0 15
0.96840757 -0.6400947 -0.17765345 0 15
0.99102926 -0.63767809 -0.18035129 0 15
0.98306298 -0.61559331 -0.17751057 0 15
1.0026623 -0.61083376 -0.17967975 0 15
1.0187629 -0.60359365 -0.18122128 0 15
1.0066593 -0.57981992 -0.17778653 0 15
0.69600266 -0.38956904 -0.12206607 0 15
0.7041105 -0.38281435 -0.1226532 0 15
0.70759869 -0.3735128 -0.12245151 0 15
0.71793377 -0.36775321 -0.12344814 0 15
0.70686007 -0.35117695 -0.12079237 0 15
0.71626478 -0.34493461 -0.12166549 0 15
0.72060758 -0.33617434 -0.12169181 0 15
0.72488111 -0.32737654 -0.12172448 0 15
0.73850518 -0.32265669 -0.12333671 0 15
0.74119985 -0.31303811 -0.12313458 0 15
0.72868168 -0.29724729 -0.12043863 0 15
0.75879627 -0.29870296 -0.12479953 0 15
0.76787055 -0.29142234 -0.12569311 0 15
0.74901998 -0.2737802 -0.12204716 0 15
0.75815445 -0.26659814 -0.12299209 0 15
0.75028586 -0.25350919 -0.12120074 0 15
0.74635017 -0.24199647 -0.1200752 0 15
0.73891115 -0.2295831 -0.11841525 0 15
0.73971581 -0.21989708 -0.11810195 0 15
0.74473631 -0.21145894 -0.11847942 0 15
0.74993205 -0.2030039 -0.11889988 0 15
0.76352888 -0.19664127 -0.12066314 0 15
0.77199703 -0.18873164 -0.12162544 0 15
0.78425604 -0.18153931 -0.1231958 0 15
0.70468825 -0.15401742 -0.11039095 0 15
0.76079184 -0.15650383 -0.11886925 0 15
0.78241545 -0.15094927 -0.12194858 0 15
0.7773062 -0.14007314 -0.12087465 0 15
0.75777477 -0.12695423 -0.11758577 0 15
0.70887369 -0.10981868 -0.10977983 0 15
0.71305799 -0.10150546 -0.11022621 0 15
1.1541071 -0.14983609 -0.17810635 0 15
1.1681912 -0.13708113 -0.18000613 0 15
1.1686853 -0.12259153 -0.17983639 0 15
0.80205685 -0.074175179 -0.12327021 0 15
0.91791677 -0.073519297 -0.14092743 0 15
1.0695376 -0.072440282 -0.16405657 0 15
1.2664284 -0.070144765 -0.19411069 0 15
1.6206986 -0.069790632 -0.24826086 0 15
10.28934 -0.31639016 -1.5754203 0 15
10.292276 -0.18984999 -1.5753934 0 15
10.290511 -0.063266091 -1.574885 0 15
10.299617 0.063322075 -1.5762786 0 15
10.30047 0.19000112 -1.5766475 0 15
10.301754 0.31677189 -1.5773211 0 15
10.306752 0.44383004 -1.5788025 0 15
10.283529 0.56958276 -1.5761989 0 15
10.283408 0.69650006 -1.577374 0 15
10.300609 0.82501328 -1.5814488 0 15
10.287824 0.95143026 -1.5811626 0 15
10.295836 1.080002 -1.5843154 0 15
10.287143 1.2071426 -1.5851419 0 15
10.178726 1.3214897 -1.5708212 0 15
10.190412 1.4506286 -1.5752581 0 15
10.188664 1.5784276 -1.5778692 0 15
10.183089 1.7060299 -1.5801351 0 15
10.181812 1.8347961 -1.5833181 0 15
10.168301 1.9617424 -1.5848483 0 15
10.059418 2.0693405 -1.5717248 0 15
10.056841 2.198034 -1.5754261 0 15
10.066744 2.3302464 -1.5813466 0 15
10.048014 2.4564581 -1.5830296 0 15
9.9371586 2.5592422 -1.5704038 0 15
9.9329548 2.6888151 -1.5748456 0 15
9.9343576 2.8207417 -1.5804478 0 15
9.8338966 2.9233458 -1.5700656 0 15
9.8331089 3.055192 -1.5758187 0 15
9.836297 3.1893194 -1.5824949 0 15
9.7367735 3.2898946 -1.5728726 0 15
9.7258549 3.4200087 -1.5777831 0 15
9.7300682 3.5565135 -1.5854411 0 15
9.6170912 3.6498797 -1.5742264 0 15
9.6235399 3.788342 -1.5827876 0 15
9.506814 3.8780646 -1.5713139 0 15
9.5101032 4.0164938 -1.5799012 0 15
9.418232 4.1148734 -1.5729256 0 15
9.419198 4.2539725 -1.5817034 0 15
9.313714 4.3449883 -1.5728431 0 15
9.3154039 4.4860578 -1.5823244 0 15
9.2263956 4.5837893 -1.5766603 0 15
9.2225208 4.7241287 -1.5858051 0 15
9.1267509 4.8176432 -1.5794042 0 15
9.0343943 4.9118652 -1.5737549 0 15
9.0345049 5.0568252 -1.5844862 0 15
8.9376869 5.1479673 -1.5784887 0 15
8.8577328 5.248003 -1.5756459 0 15
8.8546877 5.3943806 -1.5867835 0 15
8.7682323 5.4906607 -1.58327 0 15
8.6803865 5.5853977 -1.5796899 0 15
8.5959511 5.6817217 -1.576919 0 15
8.5095501 5.7761979 -1.5739797 0 15
8.5152979 5.9343395 -1.5884199 0 15
8.4264126 6.0276637 -1.5855455 0 15
8.3468065 6.1272516 -1.5846239 0 15
8.2699738 6.2287655 -1.5844582 0 15
8.1942225 6.3311067 -1.5847406 0 15
8.1152554 6.4309816 -1.5846424 0 15
8.053194 6.5446 -1.588118 0 15
7.968205 6.6398644 -1.5873389 0 15
7.8513775 6.7077889 -1.5803775 0 15
7.7547216 6.7919192 -1.5776135 0 15
7.699645 6.9128089 -1.583582 0 15
7.6321325 7.0235829 -1.5873394 0 15
7.4994678 7.07376 -1.5777191 0 15
7.4359689 7.1886797 -1.582837 0 15
7.3829131 7.3151307 -1.5905702 0 15
7.2517452 7.364059 -1.5817004 0 15
7.1916261 7.4849038 -1.5885422 0 15
7.0787406 7.5510964 -1.5839974 0 15
6.9582534 7.6079245 -1.5778505 0 15
6.9134898 7.7481637 -1.5891843 0 15
6.807694 7.8210878 -1.5868521 0 15
6.6986499 7.8896379 -1.5839283 0 15
6.601459 7.9717946 -1.5840058 0 15
6.516427 8.0690584 -1.5872904 0 15
6.4005365 8.1280184 -1.5832869 0 15
6.3244934 8.2378569 -1.5894136 0 15
6.1816978 8.2601738 -1.5789341 0 15
6.1014581 8.3654327 -1.5845933 0 15
6.0116119 8.4587784 -1.5881524 0 15
5.8960657 8.5160418 -1.5851718 0 15
5.7764444 8.5664406 -1.581212 0 15
5.6746402 8.6428509 -1.5823166 0 15
5.5671544 8.7107372 -1.5820926 0 15
5.4663138 8.7892752 -1.5840293 0 15
5.358429 8.8568096 -1.5842059 0 15
5.2581978 8.9374466 -1.5869442 0 15
5.124907 8.9612017 -1.5798532 0 15
5.0450606 9.0788279 -1.5895333 0 15
4.9169197 9.1102858 -1.5843357 0 15
4.801321 9.1639252 -1.5832769 0 15
4.6839561 9.2137556 -1.5818156 0 15
4.583643 9.2976885 -1.586429 0 15
4.4727774 9.3612995 -1.5877783 0 15
4.3663483 9.4350595 -1.5910619 0 15
4.2361712 9.45714 -1.5858815 0 15
4.1361589 9.5467997 -1.5922675 0 15
4.0090647 9.5744886 -1.5885434 0 15
3.8825772 9.6021338 -1.5850892 0 15
3.7607806 9.6403284 -1.5836408 0 15
3.6414165 9.6843872 -1.5834031 0 15
3.5275447 9.7435598 -1.5858659 0 15
3.4152391 9.8084917 -1.589479 0 15
3.2991519 9.8640099 -1.5917813 0 15
3.1838038 9.9231052 -1.5948794 0 15
3.0443742 9.9056053 -1.5859301 0 15
2.9306324 9.9704695 -1.5904254 0 15
2.8200986 10.04951 -1.5973811 0 15
2.6824167 10.031425 -1.5891436 0 15
2.5519288 10.036342 -1.5848316 0 15
2.4373569 10.104368 -1.5907207 0 15
2.3069541 10.107373 -1.5866079 0 15
2.1989954 10.211555 -1.5985965 0 15
2.0683675 10.2136 -1.5948144 0 15
1.9377544 10.212567 -1.5908123 0 15
1.8112026 10.230898 -1.5900782 0 15
1.6801072 10.220979 -1.5852058 0 15
1.556794 10.257245 -1.5877415 0 15
1.427312 10.252295 -1.5841389 0 15
1.3013752 10.270874 -1.5844172 0 15
1.1751471 10.287466 -1.5846279 0 15
1.04992 10.314417 -1.5866706 0 15
0.9246906 10.345245 -1.5895436 0 15
0.79710275 10.351708 -1.5889106 0 15
0.6712991 10.384495 -1.5925556 0 15
0.5443635 10.407223 -1.5948941 0 15
0.41750446 10.441754 -1.5992783 0 15
0.28681797 10.364147 -1.5867318 0 15
0.15975636 10.392448 -1.5906436 0 15
0.032081842 10.432104 -1.5965321 0 15
-0.096535839 10.46933 -1.6022898 0 15
-0.22381601 10.4005 -1.5920565 0 15
-0.35331306 10.445274 -1.5994544 0 15
-0.47751102 10.348993 -1.5854903 0 15
-0.6075505 10.390725 -1.5929079 0 15
-0.73996645 10.44887 -1.6030952 0 15
-0.86280757 10.371934 -1.5927988 0 15
-0.99417597 10.401398 -1.59908 0 15
-1.1167738 10.340075 -1.5916435 0 15
-1.2513431 10.387964 -1.6012623 0 15
-1.3715401 10.315878 -1.5926298 0 15
-1.5082704 10.366932 -1.603254 0 15
-1.6291486 10.306641 -1.5969073 0 15
-1.7638972 10.333553 -1.6043164 0 15
-1.8828707 10.267732 -1.597571 0 15
-2.0004065 10.20011 -1.5907568 0 15
-2.143564 10.260389 -1.604147 0 15
-2.2579401 10.180868 -1.5959345 0 15
-2.3750267 10.118585 -1.5906289 0 15
-2.5223806 10.181946 -1.6053435 0 15
-2.631979 10.091104 -1.5960029 0 15
-2.7512155 10.041044 -1.5933157 0 15
-2.8963809 10.082742 -1.6054623 0 15
-3.0153253 10.030368 -1.6029056 0 15
-3.1283886 9.9605761 -1.597779 0 15
-3.2447 9.9032803 -1.5948678 0 15
-3.3987682 9.9579964 -1.6102883 0 15
-3.5080667 9.8791723 -1.6043961 0 15
-3.6231136 9.8186045 -1.601674 0 15
-3.7343755 9.7493238 -1.5977423 0 15
-3.8495097 9.6914501 -1.5958947 0 15
-3.9624906 9.6290741 -1.5935261 0 15
-4.121017 9.6745415 -1.609315 0 15
-4.234869 9.6122675 -1.6074969 0 15
-4.3489442 9.5511408 -1.606096 0 15
-4.4668174 9.4985743 -1.6063713 0 15
-4.5762892 9.4285526 -1.6039248 0 15
-4.678968 9.3457956 -1.5995134 0 15
-4.8002868 9.3006582 -1.6017693 0 15
-4.9049025 9.223299 -1.5987127 0 15
-5.0205746 9.1671095 -1.599553 0 15
-5.1338644 9.1063786 -1.5998505 0 15
-5.2491803 9.0490074 -1.6009901 0 15
-5.3564944 8.977829 -1.5999292 0 15
-5.4709926 8.9186506 -1.6012508 0 15
-5.5848632 8.8580427 -1.6025778 0 15
-5.6921353 8.7868204 -1.6022345 0 15
-5.8112383 8.7334433 -1.6054099 0 15
-5.9218016 8.6666288 -1.6063919 0 15
-6.0221429 8.5849342 -1.6048537 0 15
-6.1424794 8.5313997 -1.6088442 0 15
-6.2501326 8.4595871 -1.6096733 0 15
-6.2893133 8.2971897 -1.5933676 0 15
-6.4101954 8.2441034 -1.5981891 0 15
-6.5159121 8.1707268 -1.5993761 0 15
-6.6275597 8.1042709 -1.6021988 0 15
-6.7466207 8.0459204 -1.6069424 0 15
-6.8673902 7.9883571 -1.6121894 0 15
-6.8950973 7.8238916 -1.5959879 0 15
-7.0191717 7.7699552 -1.6024709 0 15
-7.1311855 7.7014322 -1.606302 0 15
-7.2394962 7.6280847 -1.6094494 0 15
-7.2824097 7.4867516 -1.5984023 0 15
-7.3885508 7.4113274 -1.6015754 0 15
-7.5026979 7.3429985 -1.6066245 0 15
-7.634963 7.290822 -1.6156278 0 15
-7.6550407 7.1321177 -1.6011972 0 15
-7.7757211 7.0679665 -1.6081392 0 15
-7.8764977 6.9846482 -1.6110967 0 15
-7.9236612 6.8542976 -1.6033828 0 15
-8.0459089 6.788898 -1.611106 0 15
-8.0745049 6.6447954 -1.6003499 0 15
-8.1859407 6.5693655 -1.6063045 0 15
-8.3114567 6.5037136 -1.6151192 0 15
-8.342639 6.3642912 -1.6058497 0 15
-8.4584455 6.2896266 -1.613132 0 15
-8.4952049 6.1562099 -1.6055843 0 15
-8.6166782 6.0840683 -1.6142809 0 15
-8.6513395 5.9504976 -1.6069452 0 15
-8.6839571 5.8169527 -1.5995969 0 15
-8.8185816 5.7513208 -1.6112461 0 15
-8.8407564 5.6120663 -1.6025679 0 15
-8.9765062 5.5445809 -1.6146945 0 15
-8.9995766 5.4070997 -1.606763 0 15
-9.0404615 5.2814794 -1.6023465 0 15
-9.1771727 5.2110653 -1.6150982 0 15
-9.2121229 5.0821495 -1.6101292 0 15
-9.2420769 4.9514403 -1.6046016 0 15
-9.2779055 4.8247647 -1.6004007 0 15
-9.4325809 4.7587829 -1.6168656 0 15
-9.461236 4.6281886 -1.6119006 0 15
-9.5159826 4.5108223 -1.6116558 0 15
-9.5635624 4.3901892 -1.6104496 0 15
-9.6121483 4.2701926 -1.6096672 0 15
-9.6541471 4.1474824 -1.6080385 0 15
-9.7025051 4.0276742 -1.6077224 0 15
-9.7414007 3.9041069 -1.6060911 0 15
-9.8054476 3.7905228 -1.6088444 0 15
-9.8674402 3.6756804 -1.6114781 0 15
-9.9108915 3.5537195 -1.6113161 0 15
-9.974123 3.4385846 -1.6145999 0 15
-9.9514532 3.2944355 -1.6042511 0 15
-10.007092 3.1768708 -1.6068017 0 15
-10.078465 3.0636401 -1.6120911 0 15
-10.061872 2.9239409 -1.6035645 0 15
-10.135591 2.810688 -1.6096834 0 15
-10.195896 2.6928554 -1.61388 0 15
-10.200867 2.5604184 -1.6095617 0 15
-10.19838 2.4268997 -1.6043394 0 15
-10.299693 2.3175774 -1.6156719 0 15
-10.282871 2.1813138 -1.608704 0 15
-10.27242 2.0474417 -1.6030091 0 15
-10.36311 1.9333493 -1.6133293 0 15
-10.397646 1.8077909 -1.6151232 0 15
-10.403572 1.677308 -1.612718 0 15
-10.460443 1.5547682 -1.618448 0 15
-10.397724 1.4150046 -1.6059306 0 15
-10.446216 1.2909918 -1.6108464 0 15
-10.475142 1.1639905 -1.6129779 0 15
-10.453031 1.0315886 -1.6074984 0 15
-10.50135 0.90612805 -1.6130937 0 15
-10.502879 0.77628791 -1.6117405 0 15
-10.486913 0.64556909 -1.6079506 0 15
-10.478655 0.51581979 -1.6055906 0 15
-10.494245 0.38731056 -1.6071279 0 15
-10.506134 0.25844371 -1.6083405 0 15
-10.538249 0.12961124 -1.612891 0 15
-10.533 2.795026e-05 -1.6119655 0 15
-11.22487 -2.9786201e-05 -1.6122648 0 16
-11.294834 -0.13891658 -1.6224366 0 16
-11.263017 -0.27706251 -1.6182333 0 16
-11.273303 -0.41606325 -1.6203238 0 16
-11.283709 -0.55544913 -1.6226784 0 16
-11.201946 -0.68958616 -1.6120179 0 16
-11.215514 -0.82896012 -1.6153152 0 16
-11.186366 -0.96523577 -1.6127045 0 16
-11.210674 -1.1063589 -1.6180481 0 16
-11.187855 -1.2431867 -1.6168386 0 16
-11.144414 -1.3772783 -1.6128861 0 16
-11.126203 -1.5141417 -1.6128231 0 16
-11.091989 -1.6486367 -1.6106805 0 16
-11.090002 -1.7879771 -1.6134626 0 16
-11.077412 -1.9259787 -1.6149544 0 16
-11.071043 -2.0654218 -1.6176063 0 16
-11.065084 -2.2054307 -1.6205753 0 16
-10.977482 -2.3286622 -1.6118172 0 16
-10.985591 -2.4719143 -1.6173487 0 16
-10.993111 -2.6160209 -1.6230688 0 16
-10.915851 -2.7398794 -1.616514 0 16
-10.84222 -2.8635571 -1.6107028 0 16
-10.880451 -3.0172446 -1.6217715 0 16
-10.788478 -3.1350901 -1.6136866 0 16
-10.744686 -3.2661572 -1.6130219 0 16
-10.771369 -3.4194996 -1.6232171 0 16
-10.70595 -3.5442121 -1.6198037 0 16
-10.665548 -3.6769538 -1.6204093 0 16
-10.585384 -3.7955706 -1.6151989 0 16
-10.530764 -3.9227724 -1.6141026 0 16
-10.494483 -4.0568852 -1.6160656 0 16
-10.421677 -4.1767445 -1.6126411 0 16
-10.394915 -4.3151045 -1.6165882 0 16
-10.341767 -4.4428887 -1.616697 0 16
-1.8284781 -0.81230062 -0.28738013 0 16
-1.7878538 -0.82072097 -0.28256005 0 16
-1.7554256 -0.83211732 -0.27903098 0 16
-1.7627586 -0.86229521 -0.28186068 0 16
-1.7676833 -0.89180481 -0.28438008 0 16
-1.7620103 -0.91629368 -0.2852585 0 16
-9.9634981 -5.3379416 -1.6235319 0 16
-9.810853 -5.412457 -1.6093819 0 16
-9.7907314 -5.5594616 -1.6171731 0 16
-9.7463322 -5.6938519 -1.6212813 0 16
-9.6122084 -5.7751794 -1.6106615 0 16
-9.5837879 -5.9196849 -1.617974 0 16
-1.755661 -1.1144845 -0.29868886 0 16
-1.7443279 -1.1376194 -0.29911804 0 16
-1.7148503 -1.1486932 -0.29646295 0 16
-1.7133398 -1.1784562 -0.29868442 0 16
-1.5086457 -1.0652254 -0.26526371 0 16
-1.4985797 -1.085974 -0.2658217 0 16
-1.4973826 -1.1134408 -0.26801771 0 16
-1.4856946 -1.1333815 -0.26839989 0 16
-1.4852805 -1.1622317 -0.27088642 0 16
-1.4912872 -1.196785 -0.27464512 0 16
-1.8123589 -1.4914542 -0.3371278 0 16
-1.8027782 -1.5211304 -0.33879939 0 16
-1.7760335 -1.5363431 -0.33729804 0 16
-1.7688512 -1.5685656 -0.33957142 0 16
-1.7522672 -1.592774 -0.34012192 0 16
-1.7171266 -1.5998281 -0.33709395 0 16
-1.7060448 -1.6291459 -0.33882552 0 16
-1.7664063 -1.7288072 -0.3550086 0 16
-1.7572821 -1.7626992 -0.35750401 0 16
-1.7619928 -1.8114338 -0.36296645 0 16
-1.5603017 -1.6440526 -0.32555836 0 16
-1.5204393 -1.6420215 -0.32142964 0 16
-1.4996279 -1.660031 -0.32132101 0 16
-1.3957506 -1.5837632 -0.30321339 0 16
-1.3847835 -1.6108223 -0.30511081 0 16
-1.3566648 -1.6179384 -0.30327591 0 16
-1.3368347 -1.6346998 -0.30331355 0 16
-1.3324133 -1.6708 -0.30694863 0 16
-1.6894456 -2.1727831 -0.39532334 0 16
-1.6645143 -2.1959138 -0.39577794 0 16
-1.6707343 -2.2613475 -0.40383804 0 16
-1.6616437 -2.3078868 -0.40846941 0 16
-1.655652 -2.3602335 -0.4140996 0 16
-1.6471846 -2.4106748 -0.41936412 0 16
-1.6391441 -2.4633944 -0.42499685 0 16
-6.1312795 -9.4647179 -1.6197698 0 16
-6.0007148 -9.5176172 -1.6160729 0 16
-5.8811059 -9.5872059 -1.6154875 0 16
-5.7640481 -9.6609154 -1.6158425 0 16
-5.64184 -9.7259092 -1.6149877 0 16
-1.3795499 -2.4470267 -0.4034816 0 16
-1.3534323 -2.4712434 -0.40469989 0 16
-5.2771993 -9.9233751 -1.6143395 0 16
-5.1645045 -10.006338 -1.6173828 0 16
-5.0440955 -10.075104 -1.6183499 0 16
-4.860795 -10.014721 -1.5989289 0 16
-4.7389698 -10.0773 -1.5994955 0 16
-4.6260157 -10.159645 -1.6034157 0 16
-4.4986939 -10.211095 -1.6026841 0 16
-4.3808722 -10.284581 -1.6056416 0 16
-4.2620635 -10.357052 -1.6086522 0 16
-4.1428537 -10.429968 -1.6119432 0 16
-4.0168343 -10.486738 -1.6129615 0 16
-3.896172 -10.558591 -1.616522 0 16
-3.7269909 -10.495691 -1.5997548 0 16
-3.6054642 -10.563592 -1.6032255 0 16
-3.4856961 -10.638834 -1.6080184 0 16
-3.3583076 -10.692622 -1.6097848 0 16
-3.2391078 -10.774773 -1.616034 0 16
-3.0766821 -10.710397 -1.6005837 0 16
-2.9497051 -10.765468 -1.6032718 0 16
-2.8287742 -10.845624 -1.6099074 0 16
-2.6722322 -10.786841 -1.5961835 0 16
-2.5486364 -10.858233 -1.6019893 0 16
-2.4221535 -10.921293 -1.6067772 0 16
-2.2974899 -10.99717 -1.6136622 0 16
-2.144973 -10.937258 -1.6008797 0 16
-2.0180531 -11.004912 -1.6070286 0 16
-1.8684412 -10.94601 -1.5949515 0 16
-1.7435347 -11.030293 -1.6039873 0 16
-1.6129932 -11.086733 -1.6091888 0 16
-1.4653056 -11.021124 -1.59693 0 16
-1.3373262 -11.101748 -1.606108 0 16
-1.1938914 -11.054099 -1.59697 0 16
-1.0633785 -11.125417 -1.6052626 0 16
-0.9215517 -11.078105 -1.5966805 0 16
-0.78825295 -11.130711 -1.6027442 0 16
-0.64885515 -11.097144 -1.5966414 0 16
-0.51514345 -11.164593 -1.6053131 0 16
-0.37642786 -11.128636 -1.5993565 0 16
-0.24076113 -11.187923 -1.60733 0 16
-0.10301562 -11.172064 -1.6047482 0 16
0.034169316 -11.110891 -1.5959011 0 16
0.027644439 -1.798322 -0.25832936 0 16
0.04921798 -1.7784883 -0.25554788 0 16
0.070715204 -1.7685816 -0.25423014 0 16
0.093139552 -1.7806557 -0.25611103 0 16
0.11469629 -1.7742658 -0.2553755 0 16
0.1372585 -1.7825304 -0.25678858 0 16
0.15826127 -1.770594 -0.25533009 0 16
0.18093151 -1.7774715 -0.2566233 0 16
0.20407572 -1.7865186 -0.25827226 0 16
0.22511929 -1.7767142 -0.25723559 0 16
1.5266858 -10.966092 -1.5902865 0 16
1.662177 -10.951581 -1.5910258 0 16
1.7952008 -10.921153 -1.5896922 0 16
0.31551799 -1.782259 -0.25997218 0 16
0.33616883 -1.7717142 -0.25901744 0 16
0.34771535 -1.7170187 -0.25162724 0 16
0.29665646 -1.3775945 -0.20240428 0 16
0.29556438 -1.2949454 -0.19078054 0 16
0.29293209 -1.2143867 -0.17942919 0 16
0.29428002 -1.1573578 -0.1715247 0 16
0.29187441 -1.0915219 -0.16228721 0 16
0.29667667 -1.0572165 -0.15771717 0 16
0.29404005 -1.0003701 -0.14976481 0 16
0.34995699 -1.1386694 -0.1711008 0 16
0.34089467 -1.0624818 -0.1602703 0 16
0.34445664 -1.0298779 -0.15597931 0 16
0.35986078 -1.0335124 -0.15718806 0 16
0.42120329 -1.1634209 -0.17772028 0 16
0.44179145 -1.1749492 -0.18029752 0 16
0.45673451 -1.1707864 -0.18050691 0 16
0.46459383 -1.1490028 -0.17801574 0 16
0.49231631 -1.1757548 -0.1830845 0 16
0.50046074 -1.1551292 -0.18081737 0 16
0.51249534 -1.1441321 -0.18006879 0 16
0.52819693 -1.1413586 -0.18064083 0 16
0.53637254 -1.1226009 -0.17870243 0 16
4.899241 -9.9378633 -1.591439 0 16
5.039865 -9.9138594 -1.5973985 0 16
5.1489081 -9.8273382 -1.5935386 0 16
5.2673807 -9.759635 -1.5929426 0 16
5.4005842 -9.7186098 -1.5969647 0 16
5.48874 -9.5973854 -1.5880154 0 16
5.6323895 -9.5734673 -1.595397 0 16
5.743072 -9.4925766 -1.5935649 0 16
0.9712767 -1.5617139 -0.2641575 0 16
0.97340822 -1.5230587 -0.25962409 0 16
0.96791172 -1.4741932 -0.25330403 0 16
0.96954507 -1.4378308 -0.24908572 0 16
0.71645838 -1.0348238 -0.18078248 0 16
0.73070788 -1.0281595 -0.18117422 0 16
0.73292035 -1.0048739 -0.1786456 0 16
0.74838591 -1.0000161 -0.17940442 0 16
0.76523113 -0.99673831 -0.18049084 0 16
0.77814049 -0.98815787 -0.18065608 0 16
