# .PCD v0.7 - Point Cloud Data file format
VERSION 0.7
FIELDS x y z intensity ring
SIZE 4 4 4 4 2
TYPE F F F F U
COUNT 1 1 1 1 1
WIDTH 1286
HEIGHT 1
VIEWPOINT 0 0 0 1 0 0 0
POINTS 1286
DATA ascii
-5.1732044 0.57484287 -1.5527815 0 0
-5.2055907 0.51372927 -1.5604883 0 0
-5.2015777 0.44882753 -1.5575131 0 0
-5.1933122 0.38384765 -1.5535074 0 0
-5.196209 0.31987599 -1.5530798 0 0
-5.2029042 0.25611693 -1.5540223 0 0
-5.2084789 0.19222908 -1.5548638 0 0
-5.1957774 0.12781258 -1.5504857 0 0
-5.1889176 0.063819148 -1.5480875 0 0
-5.200717 1.380057e-05 -1.5514903 0 0
-1.8797312 -4.9880355e-06 -0.54197681 0 1
-1.5561588 -0.01913939 -0.44871613 0 1
-1.3569578 -0.033380233 -0.39136559 0 1
-1.3414403 -0.049508471 -0.38703644 0 1
-1.3459506 -0.066255443 -0.38854346 0 1
-1.357169 -0.083546638 -0.3920489 0 1
-1.3459201 -0.099479526 -0.38912329 0 1
-1.3503551 -0.11651783 -0.39079025 0 1
-1.3527644 -0.1335016 -0.3919329 0 1
-1.3461185 -0.14957973 -0.39051077 0 1
-1.3397624 -0.16557406 -0.38922811 0 1
-1.336955 -0.1819434 -0.38903302 0 1
-1.3454427 -0.19997732 -0.3921887 0 1
-1.3329875 -0.21490991 -0.38929901 0 1
-1.3311028 -0.23143274 -0.38955024 0 1
-1.3361515 -0.24927339 -0.39189512 0 1
-1.3207107 -0.2632367 -0.38828635 0 1
-1.3301352 -0.28216267 -0.39204758 0 1
-1.329137 -0.29907471 -0.39280757 0 1
-1.3240188 -0.31507561 -0.39241031 0 1
-1.3124477 -0.32942444 -0.39015195 0 1
-1.3071854 -0.34524295 -0.38982016 0 1
-1.3016399 -0.36095616 -0.38946059 0 1
-1.2886738 -0.37448364 -0.38692957 0 1
-1.3055513 -0.39685994 -0.39343262 0 1
-1.2928586 -0.41043338 -0.39109895 0 1
-1.2818501 -0.42435741 -0.3893179 0 1
-1.2878557 -0.44398901 -0.39277032 0 1
-1.2766538 -0.45776603 -0.3910411 0 1
-1.2653743 -0.47135949 -0.38933206 0 1
-1.2649519 -0.48899648 -0.39102265 0 1
-1.2592905 -0.50469178 -0.39116135 0 1
-1.2392848 -0.51444811 -0.3868829 0 1
-1.2335377 -0.52993554 -0.38709375 0 1
-1.2450124 -0.55309623 -0.39279917 0 1
-1.2332405 -0.56612366 -0.39125186 0 1
-1.2287872 -0.58247703 -0.39208171 0 1
-1.2250823 -0.59927809 -0.39322114 0 1
-1.2032834 -0.60706234 -0.38859084 0 1
-1.1978183 -0.62289828 -0.38927004 0 1
-1.3354185 -0.71545005 -0.43681374 0 1
-1.3116355 -0.72360384 -0.43191215 0 1
-1.256565 -0.71351409 -0.41663542 0 1
-1.2174351 -0.71123117 -0.40653029 0 1
-1.1786131 -0.70813096 -0.39644438 0 1
-1.1426964 -0.70581722 -0.38725331 0 1
-1.1308841 -0.71787935 -0.38621253 0 1
-1.1085236 -0.72295916 -0.38158327 0 1
-1.076275 -0.72094327 -0.3735058 0 1
-1.0547081 -0.72544122 -0.36908913 0 1
-1.048665 -0.74044198 -0.37013257 0 1
-1.0353746 -0.75030369 -0.36867017 0 1
-1.029265 -0.76535255 -0.36981782 0 1
-1.0223008 -0.77987558 -0.37073314 0 1
-1.009889 -0.7902379 -0.36972797 0 1
-1.0106192 -0.81104016 -0.37361822 0 1
-0.97950131 -0.80606633 -0.36575082 0 1
-0.96853083 -0.81721741 -0.3653791 0 1
-0.92325705 -0.79865593 -0.35197774 0 1
-0.89028996 -0.78948313 -0.34308457 0 1
-0.87542886 -0.79574639 -0.3411026 0 1
-0.86172497 -0.80285978 -0.33958402 0 1
-0.85045779 -0.81212395 -0.3390536 0 1
-0.84610349 -0.82809371 -0.34135139 0 1
-0.82875782 -0.83131266 -0.33845192 0 1
-0.815256 -0.83813179 -0.33712131 0 1
-0.80977184 -0.85323727 -0.33916643 0 1
-0.81594467 -0.88119185 -0.34626406 0 1
-0.79887271 -0.88432163 -0.34360787 0 1
-0.78293031 -0.88839388 -0.34142363 0 1
-0.77948827 -0.90672445 -0.34475866 0 1
-0.76558614 -0.91302669 -0.34354952 0 1
-0.75537533 -0.92368335 -0.34403831 0 1
-0.75484872 -0.94655401 -0.34907323 0 1
-0.7391426 -0.95060563 -0.34718934 0 1
-0.72391087 -0.9550209 -0.34552467 0 1
-0.71217793 -0.96393657 -0.34555584 0 1
-0.70864493 -0.98424965 -0.34968758 0 1
-0.70014685 -0.99810219 -0.35152385 0 1
-0.68364286 -1.0005196 -0.34938815 0 1
-0.67378986 -1.0126079 -0.35068968 0 1
-0.66331834 -1.0239495 -0.35176617 0 1
-0.64835769 -1.0283475 -0.35051167 0 1
-0.63910663 -1.0418528 -0.35240966 0 1
-0.6351878 -1.0646156 -0.35744029 0 1
-0.62230653 -1.0727878 -0.35758781 0 1
-0.61281502 -1.0870029 -0.35978714 0 1
-0.59339517 -1.0834852 -0.35618076 0 1
-0.59197313 -1.1131607 -0.36351576 0 1
-0.57442164 -1.1129543 -0.36111441 0 1
-0.56385219 -1.1262414 -0.36314857 0 1
-0.55245674 -1.1382295 -0.36479598 0 1
-0.53146529 -1.1301475 -0.36008406 0 1
-0.5277229 -1.1589838 -0.36717647 0 1
-0.50479382 -1.1457765 -0.36099851 0 1
-0.49353376 -1.1586249 -0.36310714 0 1
-0.48478535 -1.1780555 -0.36730063 0 1
-0.47149849 -1.1870354 -0.36826494 0 1
-0.46072671 -1.2028179 -0.37137559 0 1
-0.44580558 -1.208129 -0.37129483 0 1
-0.42973518 -1.2101902 -0.3702763 0 1
-0.41715261 -1.2222087 -0.37235594 0 1
-0.4074513 -1.2435987 -0.37731764 0 1
-0.38573742 -1.2281616 -0.37116671 0 1
-0.37811586 -1.2577885 -0.37868658 0 1
-0.36208782 -1.2604825 -0.37812862 0 1
-0.35003543 -1.2775159 -0.38191831 0 1
-0.32900718 -1.2614256 -0.3758702 0 1
-0.31796151 -1.2834965 -0.38125288 0 1
-0.30164236 -1.2851199 -0.38060454 0 1
-0.2858021 -1.2886585 -0.38058296 0 1
-0.27475789 -1.3151568 -0.3873817 0 1
-0.25858301 -1.3185196 -0.38740635 0 1
-0.27970579 -1.5253006 -0.44711822 0 1
-0.27204147 -1.5937182 -0.46615794 0 1
-0.25386539 -1.6060532 -0.46881741 0 1
-0.19633441 -1.3494831 -0.39318848 0 1
-0.18065926 -1.3588076 -0.39522812 0 1
-0.16337101 -1.3562164 -0.39386037 0 1
-0.14643914 -1.3558625 -0.3932049 0 1
-0.13057421 -1.3661104 -0.39568132 0 1
-0.11495459 -1.3818856 -0.39981082 0 1
-0.097957745 -1.3832352 -0.39982256 0 1
-0.081070356 -1.3865181 -0.40045303 0 1
-0.064514063 -1.3981993 -0.40356719 0 1
-0.04800928 -1.4193366 -0.40946674 0 1
-0.030229788 -1.4047474 -0.40512002 0 1
-0.013089302 -1.4195373 -0.40930799 0 1
0.0044017797 -1.4313338 -0.41269377 0 1
0.021880241 -1.4233502 -0.41043845 0 1
0.039388571 -1.4233032 -0.41053352 0 1
0.057215285 -1.4309498 -0.41291076 0 1
0.075761408 -1.4484179 -0.41818854 0 1
0.093328997 -1.4437298 -0.41713476 0 1
0.11150032 -1.4480175 -0.41873813 0 1
0.12988323 -1.4531064 -0.42063978 0 1
0.14763415 -1.4503584 -0.420338 0 1
0.16601202 -1.4533015 -0.42175072 0 1
0.18426543 -1.4542824 -0.42266095 0 1
0.20120767 -1.4452624 -0.42072672 0 1
0.22193702 -1.4622757 -0.42644164 0 1
0.2395656 -1.4574039 -0.42584774 0 1
0.26283434 -1.4846661 -0.43472517 0 1
0.2811487 -1.481741 -0.43484804 0 1
0.30005777 -1.4816855 -0.43588164 0 1
0.31732172 -1.4735585 -0.43460587 0 1
0.40340883 -1.7674403 -0.52270579 0 1
0.4262206 -1.7669508 -0.5240714 0 1
0.44795376 -1.7617331 -0.52411789 0 1
0.47195861 -1.7649821 -0.52677125 0 1
0.49610299 -1.7678785 -0.52941632 0 1
0.51891667 -1.7654357 -0.53055549 0 1
0.53977811 -1.7562982 -0.52976412 0 1
0.56789058 -1.7699703 -0.53595394 0 1
0.59086537 -1.766606 -0.53709465 0 1
0.61887306 -1.77739 -0.54264587 0 1
0.63837039 -1.7632661 -0.54068947 0 1
0.6661393 -1.7716048 -0.54571694 0 1
0.68996435 -1.7686442 -0.54737699 0 1
0.70960867 -1.7549573 -0.54580027 0 1
0.74614561 -1.7819524 -0.55700725 0 1
0.76319259 -1.761549 -0.5535211 0 1
0.78863662 -1.7606103 -0.55623126 0 1
0.81356215 -1.7579923 -0.55852252 0 1
0.8440358 -1.7665247 -0.56448799 0 1
0.86959493 -1.7639295 -0.56703269 0 1
0.90251815 -1.775333 -0.57422256 0 1
0.92261004 -1.7609172 -0.57318592 0 1
0.95384657 -1.767329 -0.57904708 0 1
0.97712868 -1.7583897 -0.58001101 0 1
1.0107569 -1.767368 -0.58702779 0 1
1.0352963 -1.7597104 -0.58866829 0 1
0.82529426 -1.3641076 -0.45968908 0 1
0.82174253 -1.3212783 -0.44862726 0 1
0.81418371 -1.2739255 -0.43591547 0 1
0.80818737 -1.2309226 -0.42456907 0 1
0.83048421 -1.2316042 -0.42829412 0 1
0.84196484 -1.2161005 -0.42647076 0 1
0.85145533 -1.1980599 -0.42378381 0 1
0.88410622 -1.2121581 -0.43258342 0 1
0.90999889 -1.2159684 -0.4379034 0 1
0.9166168 -1.193923 -0.43399051 0 1
0.93501514 -1.1873724 -0.43575573 0 1
0.95063663 -1.1771393 -0.43625724 0 1
0.96854728 -1.1695991 -0.4378435 0 1
0.96747959 -1.1394928 -0.43099406 0 1
0.96326882 -1.1066612 -0.42302415 0 1
0.97064763 -1.0878351 -0.42035845 0 1
0.97108871 -1.0617563 -0.414864 0 1
0.96939349 -1.0340799 -0.40867659 0 1
0.96993732 -1.0094918 -0.40364221 0 1
0.97234052 -0.98739994 -0.39955938 0 1
0.96749824 -0.95861566 -0.39269605 0 1
0.99771285 -0.96453315 -0.40011558 0 1
1.044256 -0.9849788 -0.41389239 0 1
1.0642487 -0.97939062 -0.41701171 0 1
1.116227 -1.0021584 -0.43251744 0 1
1.1454265 -1.0032139 -0.43901855 0 1
1.1818318 -1.0096927 -0.44817942 0 1
1.2179548 -1.0149155 -0.45711088 0 1
1.267967 -1.0304403 -0.47108987 0 1
1.0018735 -0.79394048 -0.36857271 0 1
1.014537 -0.78386229 -0.36965755 0 1
1.0259708 -0.77273905 -0.37033343 0 1
1.0403806 -0.763726 -0.37211683 0 1
1.0459466 -0.74819672 -0.37078893 0 1
1.0545083 -0.73489034 -0.37059259 0 1
1.0591375 -0.71893191 -0.36908472 0 1
1.0926732 -0.72223133 -0.37764782 0 1
1.117746 -0.71921402 -0.38322788 0 1
1.1421763 -0.71522993 -0.38855925 0 1
1.1849579 -0.72189033 -0.40006319 0 1
1.2126625 -0.71847463 -0.40640327 0 1
1.2579566 -0.72456324 -0.4185653 0 1
1.28851 -0.72120935 -0.42574847 0 1
1.3283982 -0.72223032 -0.43596098 0 1
1.3547903 -0.71513915 -0.44170311 0 1
1.4095657 -0.72203356 -0.45663238 0 1
1.4519436 -0.72134387 -0.46745202 0 1
1.495971 -0.72042096 -0.47873837 0 1
1.5492458 -0.72274667 -0.492906 0 1
1.5909555 -0.71851987 -0.50332719 0 1
1.6528599 -0.72214293 -0.52006316 0 1
1.7173949 -0.72532403 -0.53752184 0 1
1.7611589 -0.71842027 -0.54841298 0 1
1.833907 -0.72192425 -0.568259 0 1
1.8994347 -0.72087365 -0.58577257 0 1
1.9575685 -0.71552628 -0.6009419 0 1
2.04843 -0.72031182 -0.62606853 0 1
2.1996469 -0.74322432 -0.66944164 0 1
2.2029316 -0.71427822 -0.66771781 0 1
2.1958079 -0.68224764 -0.66296566 0 1
2.2083635 -0.65648544 -0.66426891 0 1
2.1982529 -0.6241675 -0.65886927 0 1
2.2053652 -0.59698439 -0.65875095 0 1
2.1876488 -0.5634129 -0.65134037 0 1
2.2062662 -0.5393703 -0.65485924 0 1
2.1951954 -0.50814313 -0.64966953 0 1
2.1976993 -0.48033151 -0.64861345 0 1
2.2095704 -0.45453459 -0.65041828 0 1
2.2022896 -0.4248817 -0.64668828 0 1
2.2083571 -0.39795324 -0.64698416 0 1
2.1988187 -0.36838037 -0.64281398 0 1
2.1935742 -0.33982843 -0.64001077 0 1
2.2208109 -0.31613758 -0.64677447 0 1
2.1919379 -0.28457621 -0.63729835 0 1
2.206192 -0.25888512 -0.64046872 0 1
2.2131789 -0.23215573 -0.6416198 0 1
0.7560252 -0.069918111 -0.21891248 0 1
0.85653669 -0.068603143 -0.24775331 0 1
1.7015872 -0.11524929 -0.49173713 0 1
1.5038787 -0.083296634 -0.43427306 0 1
1.6160438 -0.069590181 -0.46638045 0 1
1.937233 -0.059568588 -0.55882007 0 1
5.3589215 -0.09884996 -1.5453832 0 1
5.3509474 -0.03289764 -1.5428504 0 1
5.3585916 0.032944638 -1.5450544 0 1
5.3443532 0.09858124 -1.5411822 0 1
5.3169565 0.16349277 -1.5337454 0 1
5.309855 0.22865334 -1.532392 0 1
5.3149872 0.29438579 -1.5348018 0 1
5.3237681 0.36058131 -1.5385015 0 1
5.3344998 0.42725953 -1.5430045 0 1
5.3286886 0.49280351 -1.5429598 0 1
5.326251 0.55870748 -1.5441264 0 1
5.2796292 0.61953694 -1.532703 0 1
5.2956376 0.68752515 -1.5396883 0 1
5.2922387 0.75336242 -1.5412769 0 1
5.2871189 0.81908023 -1.5426024 0 1
5.2615976 0.88150483 -1.5382025 0 1
5.2626357 0.94834429 -1.5417986 0 1
5.222352 1.0075341 -1.5335104 0 1
5.2274756 1.0753533 -1.5387815 0 1
5.2175913 1.1403624 -1.539883 0 1
5.1866674 1.200608 -1.5349976 0 1
5.1995506 1.2711444 -1.5433195 0 1
5.1688027 1.3311872 -1.5389353 0 1
5.1673827 1.3987919 -1.5435169 0 1
5.1321793 1.4572207 -1.5382376 0 1
5.1007075 1.5162994 -1.5342771 0 1
5.0964308 1.5834844 -1.5387312 0 1
5.0895009 1.6502191 -1.542649 0 1
5.0530801 1.7073522 -1.5378568 0 1
5.049705 1.7756829 -1.5433582 0 1
5.0211358 1.8353148 -1.5414075 0 1
4.9898405 1.8937448 -1.5388325 0 1
4.9668527 1.9552199 -1.5390414 0 1
4.9292569 2.0107658 -1.5349373 0 1
4.9051037 2.0716197 -1.5352323 0 1
4.9085469 2.1445692 -1.5444469 0 1
4.8822131 2.2049437 -1.5445753 0 1
4.8640342 2.2691455 -1.5475345 0 1
4.8066144 2.3147411 -1.5382054 0 1
4.7641029 2.3668664 -1.5337989 0 1
4.7429395 2.4295154 -1.5364873 0 1
4.7275624 2.4954894 -1.54133 0 1
4.6951656 2.5526915 -1.540885 0 1
4.6668277 2.6121333 -1.5420097 0 1
4.6187525 2.6603289 -1.5368174 0 1
4.5920062 2.7206581 -1.538933 0 1
4.5651121 2.7811203 -1.5412644 0 1
4.5439901 2.8454432 -1.5458292 0 1
4.4742856 2.8789804 -1.5340436 0 1
4.4660778 2.9519727 -1.5435581 0 1
4.4176641 2.9986663 -1.539453 0 1
4.4052391 3.0700257 -1.5481614 0 1
4.3430557 3.1067171 -1.5396168 0 1
4.3072047 3.1618469 -1.5405741 0 1
4.2741313 3.2191834 -1.5427862 0 1
4.2279015 3.2666059 -1.5404817 0 1
4.1926637 3.3225009 -1.5424118 0 1
4.1457934 3.3691673 -1.5402935 0 1
4.1047745 3.4204876 -1.5405638 0 1
4.074481 3.4810145 -1.5451424 0 1
4.0176735 3.5188515 -1.5398921 0 1
3.9814665 3.5745957 -1.5427451 0 1
3.9264557 3.6133792 -1.5385295 0 1
3.8853567 3.6648042 -1.5399668 0 1
3.8398514 3.7121539 -1.5399064 0 1
3.7938035 3.7589729 -1.5398598 0 1
3.7586713 3.816885 -1.5445334 0 1
3.7182169 3.8698473 -1.5473467 0 1
3.6707656 3.9157114 -1.5475203 0 1
3.6070604 3.9438407 -1.5409915 0 1
3.5703676 4.0014219 -1.5462193 0 1
3.5042362 4.0258775 -1.5389023 0 1
3.4653265 4.0814452 -1.5437382 0 1
3.4087324 4.1163197 -1.5409586 0 1
3.3591938 4.1595693 -1.5415697 0 1
3.3046398 4.1965504 -1.5400989 0 1
3.2579277 4.243556 -1.5425309 0 1
3.2145185 4.2953382 -1.5468686 0 1
3.1520638 4.3216519 -1.5422701 0 1
3.0961194 4.3564668 -1.5409914 0 1
3.0422277 4.3940725 -1.5409446 0 1
2.994772 4.4412332 -1.5444523 0 1
2.931392 4.4647031 -1.5399626 0 1
2.8858652 4.5154147 -1.5450975 0 1
2.8313479 4.5525188 -1.5457637 0 1
2.7741532 4.5853267 -1.545204 0 1
2.7187092 4.6210356 -1.5458549 0 1
2.6582127 4.6480417 -1.5438379 0 1
2.5963314 4.6722221 -1.5411489 0 1
2.5498514 4.7244773 -1.5479261 0 1
2.4844902 4.7419615 -1.5435284 0 1
2.4258428 4.7718472 -1.5434301 0 1
2.3696404 4.8066959 -1.5451603 0 1
2.3111019 4.8370209 -1.5456562 0 1
2.244766 4.8506207 -1.5410652 0 1
2.1926906 4.8951235 -1.5465209 0 1
2.123908 4.9022593 -1.5404079 0 1
2.0638077 4.9288063 -1.540659 0 1
2.005836 4.960701 -1.5428022 0 1
1.9532473 5.0069246 -1.5495912 0 1
1.8833141 5.0086942 -1.542855 0 1
1.8313036 5.0583105 -1.5510848 0 1
1.7585877 5.0506253 -1.5419807 0 1
1.7071089 5.1040201 -1.5517563 0 1
1.633144 5.0900936 -1.5413003 0 1
1.5707754 5.1108961 -1.5416342 0 1
1.5139214 5.1505971 -1.5478772 0 1
1.4505831 5.169198 -1.5479897 0 1
1.3909529 5.2017422 -1.5524963 0 1
1.3192656 5.188468 -1.543576 0 1
1.2576767 5.2138557 -1.5464113 0 1
1.1942048 5.2321258 -1.5473578 0 1
1.1269292 5.2331624 -1.5434494 0 1
1.0662163 5.264977 -1.5488489 0 1
1.0026162 5.2840986 -1.55073 0 1
0.93292171 5.269773 -1.5430424 0 1
0.86885536 5.2857051 -1.5444626 0 1
0.80294091 5.2903342 -1.5428135 0 1
0.73733723 5.2962484 -1.5417776 0 1
0.6733498 5.3142948 -1.5445039 0 1
0.6078282 5.3210464 -1.5441773 0 1
0.54237479 5.3282914 -1.5442276 0 1
0.47742456 5.3413262 -1.5461869 0 1
0.41131058 5.3415537 -1.544672 0 1
0.34534189 5.3421803 -1.5435085 0 1
0.27975187 5.3483381 -1.5441771 0 1
0.2142188 5.3575954 -1.5459725 0 1
0.14859758 5.3695631 -1.5487814 0 1
0.082283162 5.3526726 -1.543501 0 1
0.016544146 5.3796864 -1.5511149 0 1
-0.049436182 5.3613634 -1.5458902 0 1
-0.11542194 5.3635392 -1.5468099 0 1
-0.18235618 5.3911405 -1.555299 0 1
-0.24727352 5.3591056 -1.5468174 0 1
-0.31333956 5.3589373 -1.5477639 0 1
-0.37978566 5.3628521 -1.5501262 0 1
-0.44480976 5.3471222 -1.5470434 0 1
-0.50932217 5.3286963 -1.5434078 0 1
-0.57480526 5.3220534 -1.5434144 0 1
-0.63982052 5.311439 -1.542501 0 1
-0.70611584 5.3109674 -1.5447689 0 1
-0.77309102 5.3137569 -1.5482283 0 1
-0.83995551 5.3138924 -1.5511597 0 1
-0.90589744 5.3070774 -1.5523049 0 1
-0.96866548 5.2823582 -1.5484413 0 1
-1.0360738 5.2829595 -1.5522349 0 1
-1.0975593 5.2535806 -1.5474511 0 1
-1.1629618 5.2437005 -1.5486361 0 1
-1.224787 5.2180934 -1.5454046 0 1
-1.2924362 5.2171016 -1.5497003 0 1
-1.3503153 5.1771584 -1.5426511 0 1
-1.4208935 5.1858006 -1.5503151 0 1
-1.4871407 5.1769624 -1.5530224 0 1
-1.5457098 5.141747 -1.5480429 0 1
-1.6041769 5.1075897 -1.5435814 0 1
-1.6745963 5.1111035 -1.5507491 0 1
-1.7388675 5.0946798 -1.5521362 0 1
-1.7999882 5.0690007 -1.5509386 0 1
-1.8605343 5.0420308 -1.5495695 0 1
-1.9204173 5.013628 -1.5479809 0 1
-1.9901729 5.0104203 -1.5544288 0 1
-2.0425513 4.9635139 -1.5475516 0 1
-2.1053596 4.942564 -1.5489743 0 1
-2.1792068 4.9463439 -1.5584391 0 1
-2.2300527 4.8976364 -1.5516152 0 1
-2.2948611 4.8799639 -1.5548389 0 1
-2.3467155 4.83495 -1.5495735 0 1
-2.4000449 4.7938628 -1.5457469 0 1
-2.4649589 4.7759109 -1.5496147 0 1
-2.5197475 4.7381949 -1.5473135 0 1
-2.5818214 4.7141695 -1.5497179 0 1
-2.6459887 4.6934185 -1.5534748 0 1
-2.7061772 4.6651511 -1.5550151 0 1
-2.756721 4.6204419 -1.5512942 0 1
-2.8061609 4.5745211 -1.5473447 0 1
-2.8660245 4.5457458 -1.549415 0 1
-2.9227371 4.5117631 -1.5499648 0 1
-2.9831953 4.4833074 -1.5526737 0 1
-3.0356915 4.4427714 -1.5514456 0 1
-3.0929289 4.4091597 -1.5528718 0 1
-3.1549737 4.382 -1.5568519 0 1
-3.1941097 4.3232441 -1.549814 0 1
-3.2496145 4.2870607 -1.5510501 0 1
-3.3110168 4.2582736 -1.5552475 0 1
-3.3592949 4.2124391 -1.5534767 0 1
-3.4062352 4.1651912 -1.5513816 0 1
-3.4665346 4.1341381 -1.5555745 0 1
-3.5150514 4.0888147 -1.5546666 0 1
-3.5543303 4.0331111 -1.5499876 0 1
-3.6154654 4.0021825 -1.5550693 0 1
-3.6505339 3.9424496 -1.5491843 0 1
-3.7131648 3.9124732 -1.5552292 0 1
-3.7439914 3.8490465 -1.5482 0 1
-3.806062 3.817795 -1.554337 0 1
-3.854347 3.7723048 -1.5549949 0 1
-3.9062967 3.7302229 -1.5573306 0 1
-3.9503775 3.6805236 -1.5567439 0 1
-3.9851236 3.6223931 -1.5527658 0 1
-4.0408297 3.5832899 -1.5571853 0 1
-4.0767655 3.5265725 -1.5542049 0 1
-4.1110783 3.4688053 -1.5509079 0 1
-4.1499391 3.4151316 -1.5496085 0 1
-4.2189155 3.3857558 -1.5597008 0 1
-4.2531395 3.3280807 -1.5571064 0 1
-4.2931657 3.2750976 -1.5568987 0 1
-4.3293257 3.219249 -1.5555389 0 1
-4.3647327 3.1629858 -1.5541687 0 1
-4.4073033 3.1119111 -1.555584 0 1
-4.4512863 3.0616493 -1.5577024 0 1
-4.4880152 3.006299 -1.5575013 0 1
-4.5356669 2.9580808 -1.5612971 0 1
-4.5456996 2.8855865 -1.5524192 0 1
-4.5792975 2.8285265 -1.5518979 0 1
-4.6203737 2.7759998 -1.5541328 0 1
-4.6696153 2.7280107 -1.5592947 0 1
-4.6801829 2.6575437 -1.5517939 0 1
-4.7275791 2.6081133 -1.5567577 0 1
-4.7317572 2.5350375 -1.5477519 0 1
-4.7749763 2.4831185 -1.551784 0 1
-4.8149214 2.4291513 -1.5549406 0 1
-4.8562279 2.3755393 -1.5587291 0 1
-4.8777199 2.3121657 -1.5563841 0 1
-4.887516 2.2436323 -1.5505894 0 1
-4.9353337 2.1925199 -1.5570889 0 1
-4.9657941 2.1333363 -1.558305 0 1
-4.9854779 2.0695562 -1.5563784 0 1
-5.0103011 2.0080018 -1.5563018 0 1
-5.0354004 1.9465506 -1.5565456 0 1
-5.066206 1.887192 -1.5587771 0 1
-5.0676174 1.8170809 -1.5522193 0 1
-5.098876 1.7578404 -1.5550555 0 1
-5.1288919 1.6979233 -1.5577245 0 1
-5.1357965 1.6304199 -1.5536151 0 1
-5.1621723 1.569191 -1.5556393 0 1
-5.179605 1.5051732 -1.5551976 0 1
-5.1963987 1.4410069 -1.5548021 0 1
-5.2245059 1.3798531 -1.5580175 0 1
-5.2304945 1.3128544 -1.5548716 0 1
-5.2450905 1.2481695 -1.5545305 0 1
-5.266624 1.1850653 -1.556476 0 1
-5.2811499 1.1202946 -1.5565801 0 1
-5.2929296 1.0549573 -1.556111 0 1
-5.308702 0.99039531 -1.5570499 0 1
-5.3179049 0.92459965 -1.5562967 0 1
-5.3283219 0.85905468 -1.5561364 0 1
-5.3392344 0.79358703 -1.5563557 0 1
-5.3399849 0.7267074 -1.5538522 0 1
-5.3498039 0.66115355 -1.5542263 0 1
-5.3535681 0.59488475 -1.5530772 0 1
-5.3781681 0.53076059 -1.5582026 0 1
-5.3859119 0.46473315 -1.5586728 0 1
-5.4045868 0.39946336 -1.5625376 0 1
-5.3811135 0.33125862 -1.554456 0 1
-5.3947411 0.26556024 -1.5573316 0 1
-5.4009109 0.19933115 -1.5582873 0 1
-5.3806148 0.13235945 -1.5518445 0 1
-5.3995013 0.066409141 -1.5569384 0 1
-5.392909 1.4310568e-05 -1.5549198 0 1
-1.9295937 -5.1203501e-06 -0.53716803 0 2
-1.5912061 -0.019570442 -0.44299984 0 2
-1.5911006 -0.039139986 -0.44307095 0 2
-1.5915686 -0.058739942 -0.44336891 0 2
-1.5812356 -0.077837527 -0.44072372 0 2
-1.5740705 -0.09689898 -0.43902555 0 2
-1.59158 -0.11763673 -0.44427902 0 2
-1.5773524 -0.1361047 -0.44074136 0 2
-1.5846034 -0.15638132 -0.44327119 0 2
-1.5843555 -0.17605247 -0.44377387 0 2
-1.5756917 -0.1947313 -0.44198447 0 2
-1.584901 -0.21568587 -0.44527796 0 2
-1.5792303 -0.23472592 -0.44446209 0 2
-1.5663505 -0.25253367 -0.44167772 0 2
-1.5802418 -0.27474937 -0.44651368 0 2
-1.3835831 -0.25812227 -0.39181292 0 2
-1.3681444 -0.27269092 -0.38836113 0 2
-1.3761041 -0.29191408 -0.39160988 0 2
-1.3598561 -0.30598694 -0.38802743 0 2
-1.3606323 -0.32378846 -0.38935557 0 2
-1.3651211 -0.34264547 -0.39181614 0 2
-1.349071 -0.35630542 -0.3884376 0 2
-1.3539782 -0.37547001 -0.3911503 0 2
-1.3444808 -0.39070091 -0.38976502 0 2
-1.3379253 -0.40670094 -0.38928494 0 2
-1.3298193 -0.422167 -0.3884075 0 2
-1.3388201 -0.44321737 -0.39259854 0 2
-1.3325742 -0.45940575 -0.39239389 0 2
-1.3159367 -0.47185162 -0.38917384 0 2
-1.3132249 -0.48918414 -0.39012128 0 2
-1.3015885 -0.50315922 -0.38847309 0 2
-1.3060923 -0.52344871 -0.39170873 0 2
-1.2950395 -0.53759277 -0.39034694 0 2
-1.2904863 -0.5544011 -0.39099979 0 2
-1.2754437 -0.56661528 -0.3885237 0 2
-1.2830902 -0.58900732 -0.39302954 0 2
-1.2686025 -0.60135049 -0.39082724 0 2
-1.2690353 -0.62077874 -0.39328253 0 2
-1.4221556 -0.71748441 -0.44343615 0 2
-1.394031 -0.72493434 -0.43741319 0 2
-1.360913 -0.72910881 -0.42980221 0 2
-1.31041 -0.72292775 -0.41662833 0 2
-1.2729422 -0.72281349 -0.40751094 0 2
-1.2034569 -0.70306504 -0.38800472 0 2
-1.1937008 -0.71719587 -0.38767326 0 2
-1.1682668 -0.72161144 -0.38226599 0 2
-1.1410378 -0.72432494 -0.37624234 0 2
-1.1280242 -0.73567718 -0.37490582 0 2
-1.1071442 -0.74162108 -0.37096903 0 2
-1.0968962 -0.75445867 -0.37061572 0 2
-1.0928223 -0.77162057 -0.37241694 0 2
-1.0772576 -0.78065503 -0.37035605 0 2
-1.0697857 -0.79548335 -0.37112203 0 2
-1.0661248 -0.81330723 -0.37329322 0 2
-1.0310948 -0.80683148 -0.36447406 0 2
-1.013296 -0.81318837 -0.36168975 0 2
-0.97751814 -0.8044343 -0.35242319 0 2
-0.94413948 -0.7966367 -0.3438949 0 2
-0.92449218 -0.79972434 -0.34029469 0 2
-0.90268356 -0.80047339 -0.3358649 0 2
-0.88628167 -0.80561131 -0.33342281 0 2
-0.88637662 -0.82582742 -0.3372533 0 2
-0.87634248 -0.83684188 -0.33732522 0 2
-0.84750801 -0.82946825 -0.33012721 0 2
-0.85595787 -0.8585965 -0.33750567 0 2
-0.8411907 -0.86479419 -0.33585054 0 2
-0.84597087 -0.89137936 -0.34210935 0 2
-0.83426285 -0.90097487 -0.34182906 0 2
-0.82076758 -0.90855837 -0.34085137 0 2
-0.81358647 -0.92317945 -0.34255752 0 2
-0.79249209 -0.92185092 -0.33842301 0 2
-0.78599972 -0.93737161 -0.34054697 0 2
-0.77644575 -0.94944859 -0.34144008 0 2
-0.76908261 -0.96440279 -0.34339103 0 2
-0.76364064 -0.98211241 -0.34632716 0 2
-0.75130004 -0.99115407 -0.34623161 0 2
-0.73227161 -0.99113351 -0.34305307 0 2
-0.73379785 -1.0191849 -0.3496128 0 2
-0.72274107 -1.0303117 -0.35035452 0 2
-0.71380842 -1.0446674 -0.3522248 0 2
-0.70527101 -1.0599194 -0.35441646 0 2
-0.68203926 -1.0528486 -0.34922135 0 2
-0.68220323 -1.0820293 -0.35609099 0 2
-0.6667037 -1.0868407 -0.35494962 0 2
-0.64946967 -1.088553 -0.35287395 0 2
-0.64246452 -1.107538 -0.35644037 0 2
-0.63015521 -1.1177608 -0.35720962 0 2
-0.61313897 -1.1195356 -0.35534051 0 2
-0.60686761 -1.1411687 -0.35981113 0 2
-0.59255058 -1.1480794 -0.35966551 0 2
-0.58059168 -1.159677 -0.36103493 0 2
-0.56830996 -1.1708919 -0.3623234 0 2
-0.55571878 -1.181722 -0.36353266 0 2
-0.54075015 -1.1875943 -0.36326617 0 2
-0.52583933 -1.1935453 -0.36308125 0 2
-0.51191121 -1.201768 -0.36364025 0 2
-0.50078142 -1.2169268 -0.36633611 0 2
-0.48631981 -1.2243493 -0.36674261 0 2
-0.4699809 -1.2269778 -0.36577123 0 2
-0.46268508 -1.2538723 -0.3720645 0 2
-0.44867492 -1.2635269 -0.37326401 0 2
-0.4317162 -1.2648784 -0.37206689 0 2
-0.4194738 -1.280293 -0.37505552 0 2
-0.40273887 -1.2822931 -0.37416241 0 2
-0.39064205 -1.2994562 -0.37774032 0 2
-0.3756167 -1.3075787 -0.37873018 0 2
-0.3587822 -1.3094387 -0.3779625 0 2
-0.34510449 -1.3231432 -0.38066459 0 2
-0.32791111 -1.3236594 -0.37962437 0 2
-0.31463495 -1.3404735 -0.38330805 0 2
-0.29982018 -1.3518648 -0.38548201 0 2
-0.2831955 -1.3555443 -0.3855091 0 2
-0.26564237 -1.3545154 -0.38425848 0 2
-0.25337392 -1.3817068 -0.39105892 0 2
-0.27174789 -1.5919983 -0.44959712 0 2
-0.2545695 -1.6105077 -0.45390603 0 2
-0.20281953 -1.3940579 -0.39216918 0 2
-0.186602 -1.4035051 -0.39415154 0 2
-0.16915476 -1.40423 -0.39374122 0 2
-0.15224852 -1.4096509 -0.39470646 0 2
-0.13644439 -1.4275262 -0.39921165 0 2
-0.11898953 -1.4303901 -0.39957315 0 2
-0.10065647 -1.4213432 -0.39667019 0 2
-0.084636129 -1.4475023 -0.40364972 0 2
-0.066506952 -1.4413909 -0.40168709 0 2
-0.049085867 -1.4511645 -0.40421203 0 2
-0.031111879 -1.4457371 -0.4025633 0 2
-0.013454534 -1.4591467 -0.40622041 0 2
0.0045722858 -1.4867774 -0.41389704 0 2
0.02265173 -1.4735371 -0.41025764 0 2
0.041025069 -1.482438 -0.41284502 0 2
0.059113134 -1.4784149 -0.41189593 0 2
0.07730902 -1.4780053 -0.41201553 0 2
0.096974917 -1.5001293 -0.4184837 0 2
0.11496103 -1.4929607 -0.41684672 0 2
0.1336517 -1.4952674 -0.41791806 0 2
0.15247306 -1.4978958 -0.41914502 0 2
0.17313893 -1.515692 -0.4246884 0 2
0.19169068 -1.512885 -0.42453024 0 2
0.21123524 -1.5172899 -0.42646295 0 2
0.22952965 -1.5123013 -0.42582193 0 2
0.25106984 -1.5273902 -0.43090725 0 2
0.2703802 -1.5272902 -0.43178436 0 2
0.2909238 -1.5332588 -0.43445027 0 2
0.30733934 -1.5176419 -0.43106347 0 2
0.33170578 -1.5403544 -0.43863997 0 2
0.40396222 -1.7698648 -0.50537294 0 2
0.42482311 -1.7611573 -0.50434011 0 2
0.44955766 -1.7680409 -0.50785595 0 2
0.47185367 -1.7645898 -0.50849283 0 2
0.49401087 -1.7604232 -0.50900418 0 2
0.52028126 -1.7700781 -0.51360673 0 2
0.54053801 -1.7587708 -0.51221567 0 2
0.56769407 -1.7693577 -0.51729286 0 2
0.58567542 -1.7510887 -0.51401842 0 2
0.61716932 -1.7724968 -0.52249074 0 2
0.64043611 -1.7689718 -0.52373344 0 2
0.66151679 -1.759311 -0.52324194 0 2
0.69352734 -1.7777776 -0.53123033 0 2
0.71114099 -1.7587469 -0.5281167 0 2
0.74028999 -1.7679679 -0.53357869 0 2
0.76195985 -1.7587036 -0.53357011 0 2
0.78911591 -1.7616802 -0.5373764 0 2
0.81985205 -1.7715839 -0.54343146 0 2
0.8458553 -1.7703328 -0.54619688 0 2
0.87244964 -1.76972 -0.54927623 0 2
0.90106815 -1.7724807 -0.55353016 0 2
0.92243344 -1.7605802 -0.55331409 0 2
0.95039493 -1.7609336 -0.55705595 0 2
0.98528928 -1.773075 -0.56468672 0 2
1.019591 -1.782815 -0.5717383 0 2
1.0394759 -1.7668147 -0.57066309 0 2
1.0678564 -1.7650325 -0.57428521 0 2
0.83721381 -1.3461546 -0.4413119 0 2
0.83025301 -1.2990686 -0.42919007 0 2
0.82600039 -1.2580529 -0.41896322 0 2
0.8349005 -1.2381536 -0.41572371 0 2
0.84678614 -1.2230641 -0.41412207 0 2
0.89230013 -1.2555315 -0.42879805 0 2
0.90866256 -1.2458261 -0.4292669 0 2
0.92770797 -1.2396318 -0.4310306 0 2
0.94624346 -1.2325127 -0.43256828 0 2
0.95272505 -1.2098621 -0.42869794 0 2
0.9716841 -1.2032017 -0.43053904 0 2
0.96822697 -1.1692122 -0.42260498 0 2
0.97157311 -1.1443142 -0.41789225 0 2
0.97135705 -1.1159533 -0.41186598 0 2
0.96856678 -1.085503 -0.40499261 0 2
0.95716918 -1.0465372 -0.39481613 0 2
0.96347076 -1.0277621 -0.3921729 0 2
0.97231477 -1.0119661 -0.39067817 0 2
0.95841324 -0.97325695 -0.38025513 0 2
0.96259242 -0.9537549 -0.37723166 0 2
0.96843308 -0.93622708 -0.37498066 0 2
1.0180935 -0.9603014 -0.38960767 0 2
1.0434716 -0.96027017 -0.39477089 0 2
1.0778528 -0.96770567 -0.40324584 0 2
1.1180465 -0.97923326 -0.41374701 0 2
1.1494092 -0.98199254 -0.42085281 0 2
1.1912068 -0.99262661 -0.43165517 0 2
1.2347177 -1.0034198 -0.44291756 0 2
1.2851932 -1.0184588 -0.45649716 0 2
1.3245409 -1.0233808 -0.46596831 0 2
1.3761826 -1.0365109 -0.4796156 0 2
1.0665816 -0.7829597 -0.36833289 0 2
1.0854869 -0.77648115 -0.37153628 0 2
1.096302 -0.76401651 -0.37199432 0 2
1.104979 -0.75004876 -0.37178099 0 2
1.1040398 -0.72974437 -0.36841795 0 2
1.1176808 -0.71917206 -0.36999097 0 2
1.1570038 -0.7245149 -0.38003033 0 2
1.1778505 -0.71756041 -0.38395047 0 2
1.210441 -0.71715844 -0.39166993 0 2
1.2526841 -0.72152632 -0.40243754 0 2
1.2876838 -0.72074699 -0.41080332 0 2
1.3232597 -0.71943653 -0.41929892 0 2
1.3723528 -0.7244097 -0.43199977 0 2
1.4036266 -0.71899134 -0.43902808 0 2
1.4556409 -0.72318071 -0.4524816 0 2
1.5078038 -0.72611934 -0.46588558 0 2
1.5444022 -0.72048706 -0.47442061 0 2
1.5878273 -0.71710712 -0.4850148 0 2
1.6564693 -0.72371989 -0.50322568 0 2
1.718821 -0.72592628 -0.51941675 0 2
1.7589701 -0.71752739 -0.52884328 0 2
1.8381034 -0.72357619 -0.54991847 0 2
1.9061109 -0.72340745 -0.56756055 0 2
1.9591781 -0.71611458 -0.58069593 0 2
2.0450673 -0.71912932 -0.60348666 0 2
2.2028968 -0.74432242 -0.64731145 0 2
2.2045987 -0.71481872 -0.64517987 0 2
2.2050743 -0.68512666 -0.64280498 0 2
2.1923556 -0.65172678 -0.63671303 0 2
2.2051566 -0.62612778 -0.63814652 0 2
2.2081361 -0.59773451 -0.63683355 0 2
2.2026029 -0.56726426 -0.63317823 0 2
2.1888478 -0.53511196 -0.62728506 0 2
2.1990089 -0.50902587 -0.6283558 0 2
2.2115347 -0.4833554 -0.630189 0 2
2.2103021 -0.45468512 -0.62819707 0 2
2.2041206 -0.42523494 -0.62490684 0 2
2.2046738 -0.39728945 -0.62363148 0 2
2.2059643 -0.36957753 -0.62266397 0 2
2.1982129 -0.34054706 -0.6192472 0 2
2.2063093 -0.31407323 -0.62039316 0 2
2.2042856 -0.2861793 -0.61878783 0 2
2.2038324 -0.25860822 -0.6177212 0 2
2.2079732 -0.23160967 -0.61803687 0 2
0.74360365 -0.068769351 -0.20789072 0 2
0.8667298 -0.069419548 -0.2420564 0 2
1.6960294 -0.11487287 -0.4732292 0 2
1.4803152 -0.081991501 -0.41272771 0 2
1.6077355 -0.069232419 -0.44798267 0 2
1.9706892 -0.060597342 -0.54886764 0 2
5.5177898 -0.10178042 -1.5363257 0 2
5.5169029 -0.033917937 -1.5358466 0 2
5.5210996 0.033943739 -1.537015 0 2
5.524827 0.10191023 -1.5382853 0 2
5.5167146 0.16963518 -1.5364909 0 2
5.5179448 0.23761411 -1.5375311 0 2
5.5168414 0.30556607 -1.5381544 0 2
5.5115156 0.37329754 -1.5378331 0 2
5.5306611 0.44297081 -1.5445782 0 2
5.5275497 0.51119441 -1.5453478 0 2
5.5205469 0.57908857 -1.545264 0 2
5.4895287 0.64416754 -1.5386825 0 2
5.485188 0.71213418 -1.5398039 0 2
5.4896479 0.7814641 -1.5436368 0 2
5.4521494 0.84464681 -1.5358969 0 2
5.4431157 0.9119156 -1.5363947 0 2
5.4514465 0.98236865 -1.5420394 0 2
5.4392476 1.0493791 -1.5421221 0 2
5.4259977 1.1161915 -1.5421404 0 2
5.429153 1.1866015 -1.547067 0 2
5.3994617 1.2498655 -1.5428692 0 2
5.3929291 1.3184202 -1.5455182 0 2
5.3530426 1.3786368 -1.5388293 0 2
5.3657198 1.452481 -1.5474908 0 2
5.3262105 1.5123135 -1.5413429 0 2
5.3200293 1.5814978 -1.545065 0 2
5.2952995 1.6452738 -1.5436418 0 2
5.2751164 1.710403 -1.5437726 0 2
5.2529631 1.7748892 -1.5435597 0 2
5.2217546 1.8361825 -1.5409073 0 2
5.2058239 1.9028217 -1.5429944 0 2
5.1539707 1.9560355 -1.5346382 0 2
5.1705093 2.0353899 -1.546898 0 2
5.1426325 2.0978069 -1.5461584 0 2
5.1064501 2.1566563 -1.5431365 0 2
5.0807681 2.2198136 -1.5435076 0 2
5.0550909 2.2830203 -1.5441188 0 2
5.014123 2.3391643 -1.5402744 0 2
4.9871249 2.4016705 -1.5409364 0 2
4.9529667 2.460696 -1.5396147 0 2
4.9426036 2.531791 -1.5459539 0 2
4.90589 2.5896213 -1.5443138 0 2
4.8582845 2.6413767 -1.5394359 0 2
4.8352327 2.7063937 -1.5425601 0 2
4.8095307 2.7702141 -1.5451107 0 2
4.7802181 2.8321693 -1.546765 0 2
4.7195811 2.8752248 -1.5384681 0 2
4.7012396 2.9439127 -1.5441726 0 2
4.6552172 2.9954009 -1.5410377 0 2
4.6224408 3.055325 -1.542508 0 2
4.5761776 3.1062636 -1.5396996 0 2
4.5520387 3.1723309 -1.5445857 0 2
4.512464 3.2278998 -1.5445087 0 2
4.4608321 3.2746224 -1.5405022 0 2
4.4266434 3.3340521 -1.5427366 0 2
4.3906951 3.3923852 -1.5446295 0 2
4.3477545 3.4454036 -1.5443107 0 2
4.3188138 3.5097761 -1.5492435 0 2
4.2615128 3.5510969 -1.5442356 0 2
4.2173915 3.6031094 -1.5441855 0 2
4.1703148 3.6525414 -1.5432769 0 2
4.1248875 3.7033603 -1.5432012 0 2
4.0724797 3.7477598 -1.5407189 0 2
4.0306292 3.8018305 -1.5424557 0 2
3.9872129 3.854615 -1.5438627 0 2
3.9532166 3.9169223 -1.5492315 0 2
3.8970959 3.9574535 -1.5461919 0 2
3.8453693 4.0021853 -1.5450777 0 2
3.7873068 4.0400295 -1.5415922 0 2
3.7524347 4.102788 -1.547816 0 2
3.7008405 4.1476474 -1.5474545 0 2
3.6381896 4.1797709 -1.542632 0 2
3.5906646 4.2290678 -1.5444138 0 2
3.5320308 4.2652125 -1.5416362 0 2
3.497252 4.3305216 -1.5495813 0 2
3.4364741 4.3639665 -1.5463113 0 2
3.3986101 4.4267993 -1.5536498 0 2
3.3140137 4.4282866 -1.5397532 0 2
3.275296 4.4906101 -1.547303 0 2
3.2093177 4.5157447 -1.5422492 0 2
3.1553135 4.5574088 -1.543111 0 2
3.0971298 4.593029 -1.5421603 0 2
3.0431683 4.6349459 -1.5435532 0 2
2.9784694 4.6603093 -1.5396867 0 2
2.9327712 4.7155972 -1.5459214 0 2
2.8734705 4.7494855 -1.5453309 0 2
2.811501 4.7787557 -1.5434892 0 2
2.7617507 4.8290839 -1.5486591 0 2
2.6929359 4.846067 -1.5433693 0 2
2.6422665 4.8957081 -1.5487144 0 2
2.5758874 4.9164047 -1.5451249 0 2
2.5134385 4.9441557 -1.5440165 0 2
2.4565921 4.9830732 -1.5466195 0 2
2.3966775 5.0161262 -1.5476143 0 2
2.339879 5.0561461 -1.5509675 0 2
2.2714577 5.0709686 -1.5468295 0 2
2.2107937 5.1028028 -1.5481306 0 2
2.1402965 5.1114774 -1.5426612 0 2
2.0793951 5.1426225 -1.5442272 0 2
2.0172038 5.1708698 -1.5451443 0 2
1.9489675 5.1833 -1.5415808 0 2
1.8931106 5.2290297 -1.548141 0 2
1.8242894 5.2393198 -1.5444293 0 2
1.7674891 5.2845488 -1.5512379 0 2
1.698428 5.2935672 -1.5476377 0 2
1.6374094 5.3277063 -1.5516148 0 2
1.5700754 5.3416419 -1.5499334 0 2
1.5036656 5.3583593 -1.549302 0 2
1.4342294 5.3635836 -1.5455965 0 2
1.3654187 5.3699808 -1.5424851 0 2
1.3060004 5.4141879 -1.5504532 0 2
1.2407465 5.4360371 -1.5522237 0 2
1.1735348 5.4495864 -1.5518548 0 2
1.1013018 5.4382291 -1.5446476 0 2
1.0371951 5.4663401 -1.5488924 0 2
0.97060001 5.4826055 -1.5500023 0 2
0.90449744 5.5025349 -1.5523748 0 2
0.8366372 5.5123491 -1.552124 0 2
0.76647848 5.5055685 -1.5474439 0 2
0.70061314 5.5294657 -1.5516219 0 2
0.63297588 5.541194 -1.5526115 0 2
0.56228566 5.5238957 -1.5457106 0 2
0.49466002 5.534153 -1.5467618 0 2
0.42783949 5.5562091 -1.5513387 0 2
0.3582879 5.5424457 -1.5461488 0 2
0.29102391 5.5638385 -1.5510012 0 2
0.22184098 5.5482254 -1.5457715 0 2
0.15367708 5.5531101 -1.546489 0 2
0.085328415 5.5507717 -1.5454286 0 2
0.017199906 5.5929213 -1.5569872 0 2
-0.051339269 5.5677538 -1.5500395 0 2
-0.11976878 5.5655327 -1.549714 0 2
-0.18832423 5.5675793 -1.5508114 0 2
-0.25628191 5.5543427 -1.5478853 0 2
-0.32610238 5.5772152 -1.5552593 0 2
-0.39427987 5.5675211 -1.5537905 0 2
-0.46243602 5.5590096 -1.5528847 0 2
-0.53065425 5.5518799 -1.5525985 0 2
-0.5982424 5.5390553 -1.550952 0 2
-0.66841322 5.5488 -1.5558642 0 2
-0.73185879 5.50459 -1.5458745 0 2
-0.80077511 5.5040402 -1.5483683 0 2
-0.86976385 5.5024714 -1.5508184 0 2
-0.93887997 5.5003014 -1.5533432 0 2
-1.0076412 5.4949017 -1.5551999 0 2
-1.0731902 5.4722171 -1.5523971 0 2
-1.141767 5.4651847 -1.5542675 0 2
-1.2059475 5.4375196 -1.5504997 0 2
-1.2712177 5.4159074 -1.5486772 0 2
-1.3395832 5.4074163 -1.5508422 0 2
-1.4036248 5.3815489 -1.5482564 0 2
-1.4735976 5.3781538 -1.5523753 0 2
-1.5435175 5.3732185 -1.5563116 0 2
-1.6063502 5.3434644 -1.5532973 0 2
-1.6628213 5.2943096 -1.5448353 0 2
-1.7329729 5.2892766 -1.5494676 0 2
-1.7981855 5.2684746 -1.549734 0 2
-1.8679972 5.2605228 -1.5540341 0 2
-1.9274522 5.2233777 -1.5499452 0 2
-1.991567 5.1993785 -1.5499735 0 2
-2.0642684 5.1969619 -1.5567024 0 2
-2.117101 5.1446733 -1.5487207 0 2
-2.1836505 5.1263604 -1.5511737 0 2
-2.2394984 5.0831928 -1.5463275 0 2
-2.3126314 5.0789957 -1.5535839 0 2
-2.3732512 5.046659 -1.5525017 0 2
-2.4373319 5.0216475 -1.5539098 0 2
-2.4937768 4.9810829 -1.5507292 0 2
-2.5538478 4.9481344 -1.550131 0 2
-2.6125135 4.9126344 -1.5489564 0 2
-2.6751969 4.8846641 -1.5503922 0 2
-2.7332895 4.8482714 -1.5493916 0 2
-2.7922373 4.8135085 -1.5491377 0 2
-2.854167 4.7837672 -1.5507438 0 2
-2.9154012 4.7526011 -1.5521445 0 2
-2.9778621 4.7231293 -1.5543606 0 2
-3.0296035 4.6767306 -1.5512338 0 2
-3.0868459 4.6390791 -1.5512179 0 2
-3.1470063 4.6056819 -1.5528728 0 2
-3.215672 4.5841374 -1.5588228 0 2
-3.2694654 4.5410194 -1.5577137 0 2
-3.3082414 4.4777222 -1.5498381 0 2
-3.3680966 4.4433684 -1.5521649 0 2
-3.4341178 4.4165931 -1.5574449 0 2
-3.4944565 4.381927 -1.5602551 0 2
-3.5230401 4.3080215 -1.549248 0 2
-3.5928261 4.2847514 -1.5566494 0 2
-3.6404116 4.2346377 -1.5545884 0 2
-3.684994 4.181376 -1.5515529 0 2
-3.7465379 4.1472745 -1.5558761 0 2
-3.7892988 4.0923109 -1.5526191 0 2
-3.8448966 4.0512757 -1.5548704 0 2
-3.8901718 3.9993284 -1.5531749 0 2
-3.945879 3.9580429 -1.555867 0 2
-3.9901605 3.9052274 -1.5542752 0 2
-4.0434403 3.8611851 -1.5564171 0 2
-4.0855145 3.8064294 -1.5544784 0 2
-4.1100035 3.7359064 -1.5462002 0 2
-4.1864038 3.7123804 -1.5576512 0 2
-4.219368 3.6499295 -1.5530998 0 2
-4.2614832 3.5957122 -1.5522095 0 2
-4.3280258 3.5616858 -1.5603769 0 2
-4.3647318 3.5027764 -1.5579641 0 2
-4.3959732 3.4398482 -1.5538999 0 2
-4.4356074 3.3837612 -1.5530847 0 2
-4.4799209 3.3312302 -1.5541406 0 2
-4.5203915 3.2757866 -1.5540891 0 2
-4.557158 3.2177205 -1.5530089 0 2
-4.6096702 3.1705878 -1.5575004 0 2
-4.6326828 3.1032045 -1.5522655 0 2
-4.6841722 3.0549331 -1.5568136 0 2
-4.7199035 2.9961703 -1.5563266 0 2
-4.7686949 2.9455128 -1.5603541 0 2
-4.8053904 2.8871608 -1.5606266 0 2
-4.8292446 2.8212669 -1.5569894 0 2
-4.856122 2.7574472 -1.5546056 0 2
-4.8989148 2.702636 -1.5575482 0 2
-4.9094028 2.6302114 -1.5504827 0 2
-4.9671917 2.5830758 -1.5585845 0 2
-4.9822836 2.5135863 -1.5535041 0 2
-5.0302262 2.4606545 -1.5589007 0 2
-5.0441089 2.3910384 -1.5539739 0 2
-5.0981531 2.3403261 -1.5616398 0 2
-5.117228 2.2733264 -1.5588022 0 2
-5.1274343 2.2027781 -1.5535427 0 2
-5.1588674 2.1415331 -1.5549704 0 2
-5.1834116 2.0773802 -1.5545514 0 2
-5.2109137 2.0143993 -1.5552531 0 2
-5.2318344 1.9488896 -1.5542272 0 2
-5.2662787 1.8883142 -1.5574441 0 2
-5.2978783 1.8264467 -1.5600294 0 2
-5.3243504 1.7626299 -1.5613241 0 2
-5.3138657 1.6869501 -1.5520494 0 2
-5.3529916 1.6271961 -1.5575153 0 2
-5.3583159 1.557106 -1.5533761 0 2
-5.3943987 1.4959141 -1.5583861 0 2
-5.4202185 1.4315431 -1.5606419 0 2
-5.4126515 1.3585759 -1.5535356 0 2
-5.4486637 1.2966137 -1.5591778 0 2
-5.4529181 1.226984 -1.5559601 0 2
-5.4724841 1.1608825 -1.5573522 0 2
-5.4905543 1.0943468 -1.5585474 0 2
-5.510447 1.028033 -1.5604876 0 2
-5.5249376 0.96059549 -1.5611283 0 2
-5.5298219 0.8915413 -1.5592928 0 2
-5.5414896 0.82364887 -1.5596092 0 2
-5.5540218 0.75583529 -1.5604025 0 2
-5.5525455 0.68620932 -1.5574993 0 2
-5.5647202 0.61834782 -1.5586637 0 2
-5.5710707 0.54979777 -1.558431 0 2
-5.5728021 0.48085928 -1.5571436 0 2
-5.5938816 0.4134545 -1.5614951 0 2
-5.5848122 0.34379822 -1.5576655 0 2
-5.5883369 0.27509016 -1.5575874 0 2
-5.5969434 0.20656611 -1.5591604 0 2
-5.6010056 0.1377809 -1.5597022 0 2
-5.5859828 0.068702705 -1.555166 0 2
-5.5911493 1.4836617e-05 -1.5564866 0 2
-1.9666157 -5.2185915e-06 -0.5280208 0 3
-1.6030686 -0.019716341 -0.43044379 0 3
-1.5944726 -0.039222937 -0.42823279 0 3
-1.6022205 -0.059133071 -0.43047643 0 3
-1.6083449 -0.079172 -0.43235078 0 3
-1.5882452 -0.09777157 -0.42723849 0 3
-1.6127009 -0.11919782 -0.43417859 0 3
-1.6074179 -0.13869897 -0.43318266 0 3
-1.596354 -0.15754098 -0.43069056 0 3
-1.5952394 -0.1772619 -0.43094534 0 3
-1.5910715 -0.196632 -0.43044004 0 3
-1.5981052 -0.21748281 -0.43303362 0 3
-1.5911858 -0.2365029 -0.43191409 0 3
-1.5883908 -0.25608712 -0.43197751 0 3
-1.5959582 -0.27748191 -0.43493056 0 3
-1.5851791 -0.29573217 -0.43295133 0 3
-1.5925766 -0.31742352 -0.43600488 0 3
-1.5826082 -0.33571997 -0.43437314 0 3
-1.5897681 -0.35772043 -0.43751252 0 3
-1.6018014 -0.38117927 -0.44208065 0 3
-1.5802643 -0.39664647 -0.43744966 0 3
-1.5827209 -0.41801509 -0.43951935 0 3
-1.5741757 -0.43653274 -0.43860385 0 3
-1.5906781 -0.46224493 -0.44475189 0 3
-1.5768754 -0.47933674 -0.44250724 0 3
-1.5695777 -0.49828115 -0.44214529 0 3
-1.3841699 -0.45823044 -0.39147413 0 3
-1.3763307 -0.47449079 -0.39087763 0 3
-1.381441 -0.49533927 -0.39402896 0 3
-1.346267 -0.5014925 -0.38572603 0 3
-1.3640692 -0.52731252 -0.39265475 0 3
-1.3613091 -0.54557824 -0.39376158 0 3
-1.3408111 -0.55659336 -0.3897827 0 3
-1.3431939 -0.57704455 -0.39250848 0 3
-1.3352962 -0.59320474 -0.39230248 0 3
-1.3247012 -0.608109 -0.391357 0 3
-1.3165694 -0.62408805 -0.39119226 0 3
-1.4422752 -0.70552313 -0.43108836 0 3
-1.4246207 -0.71872807 -0.42842072 0 3
-1.3769795 -0.71606702 -0.41671014 0 3
-1.36035 -0.72880709 -0.41435838 0 3
-1.306802 -0.72093725 -0.40071779 0 3
-1.269022 -0.72058749 -0.39182034 0 3
-1.2406082 -0.724769 -0.38576987 0 3
-1.1976137 -0.71954679 -0.37512353 0 3
-1.1756301 -0.72615957 -0.37100652 0 3
-1.1654794 -0.73984033 -0.37064612 0 3
-1.1617225 -0.75765467 -0.37238604 0 3
-1.1626128 -0.77877671 -0.3757126 0 3
-1.1455814 -0.78794497 -0.37331161 0 3
-1.1514221 -0.81299675 -0.37844402 0 3
-1.1238083 -0.81438881 -0.37263125 0 3
-1.0923089 -0.81223142 -0.36547077 0 3
-1.0638635 -0.81158221 -0.35926524 0 3
-1.0207894 -0.79876751 -0.34800974 0 3
-0.99578941 -0.79913902 -0.34281087 0 3
-0.97808367 -0.80489969 -0.34009707 0 3
-0.93842816 -0.79181767 -0.32966879 0 3
-0.92911386 -0.80372232 -0.32984364 0 3
-0.91804105 -0.81409198 -0.32944158 0 3
-0.92012489 -0.8363741 -0.33385473 0 3
-0.90838462 -0.84633201 -0.33334571 0 3
-0.90564483 -0.86482346 -0.33621731 0 3
-0.88758659 -0.86869377 -0.33345366 0 3
-0.87533718 -0.8780356 -0.33288273 0 3
-0.87213743 -0.89660925 -0.33583325 0 3
-0.85455632 -0.90042561 -0.33330163 0 3
-0.86023587 -0.92902482 -0.33994672 0 3
-0.84444124 -0.93476427 -0.33822176 0 3
-0.8427726 -0.95629716 -0.34223738 0 3
-0.82232511 -0.95655364 -0.33868483 0 3
-0.81213695 -0.96854252 -0.33936816 0 3
-0.81281865 -0.99392581 -0.3447341 0 3
-0.79957181 -1.0026352 -0.34431875 0 3
-0.78714192 -1.0123372 -0.3443006 0 3
-0.78080684 -1.030081 -0.34704369 0 3
-0.76544338 -1.0360317 -0.3458513 0 3
-0.75105107 -1.0431483 -0.34511796 0 3
-0.74524391 -1.0623909 -0.3484261 0 3
-0.73035014 -1.0688764 -0.34758145 0 3
-0.71929127 -1.0809898 -0.34861806 0 3
-0.70804119 -1.0929872 -0.34965295 0 3
-0.6887446 -1.0924044 -0.34673098 0 3
-0.68435508 -1.1156155 -0.35140064 0 3
-0.67509025 -1.1314948 -0.35376084 0 3
-0.65681803 -1.1322818 -0.35145521 0 3
-0.64735204 -1.1482643 -0.35391855 0 3
-0.6336146 -1.1569221 -0.35415891 0 3
-0.62024039 -1.1663152 -0.35467282 0 3
-0.61548573 -1.1925168 -0.3603119 0 3
-0.59844953 -1.1953464 -0.35891628 0 3
-0.58734822 -1.2101166 -0.36115533 0 3
-0.5784418 -1.2300419 -0.36495158 0 3
-0.55927205 -1.228272 -0.36235863 0 3
-0.54239881 -1.2311319 -0.36120743 0 3
-0.53679574 -1.2601871 -0.36776763 0 3
-0.5167498 -1.255731 -0.36458525 0 3
-0.50456011 -1.2702706 -0.36697757 0 3
-0.49196273 -1.2843657 -0.36927402 0 3
-0.47457889 -1.2861044 -0.36806828 0 3
-0.4640505 -1.3068266 -0.37233752 0 3
-0.45151791 -1.3228951 -0.37530544 0 3
-0.43523115 -1.3283867 -0.37531674 0 3
-0.41701746 -1.3277551 -0.37366125 0 3
-0.40299797 -1.3405578 -0.37584126 0 3
-0.38816428 -1.3512588 -0.37747467 0 3
-0.37463436 -1.367294 -0.38063845 0 3
-0.35660207 -1.3672254 -0.37936994 0 3
-0.34189725 -1.3801165 -0.38175151 0 3
-0.32311231 -1.3765905 -0.37964851 0 3
-0.3122018 -1.4076926 -0.3871381 0 3
-0.29384115 -1.4065008 -0.38578746 0 3
-0.278725 -1.421224 -0.38885641 0 3
-0.2625142 -1.4315511 -0.39076921 0 3
-0.27118066 -1.5886751 -0.43271628 0 3
-0.25825766 -1.6338406 -0.44411969 0 3
-0.24041285 -1.6524514 -0.44834113 0 3
-0.19356552 -1.4558803 -0.39433211 0 3
-0.17812066 -1.47866 -0.39987859 0 3
-0.15826027 -1.465313 -0.39571294 0 3
-0.14204033 -1.4860728 -0.40081722 0 3
-0.12388304 -1.4892157 -0.40122375 0 3
-0.1050095 -1.4828112 -0.39912018 0 3
-0.087380126 -1.4944319 -0.40192845 0 3
-0.069236696 -1.5005519 -0.40331498 0 3
-0.051225647 -1.5144247 -0.4068436 0 3
-0.03254601 -1.5123796 -0.406156 0 3
-0.013896624 -1.5070915 -0.40465936 0 3
0.0047123125 -1.5323102 -0.41141513 0 3
0.023363845 -1.5198616 -0.40811902 0 3
0.042733669 -1.5441781 -0.41475835 0 3
0.062354311 -1.5594764 -0.41904166 0 3
0.080085479 -1.5310862 -0.41164652 0 3
0.10084595 -1.5600114 -0.41972497 0 3
0.11952914 -1.5522853 -0.41801009 0 3
0.13970806 -1.5630245 -0.42133278 0 3
0.16119318 -1.5835623 -0.427371 0 3
0.179883 -1.5747308 -0.42555234 0 3
0.19866128 -1.5678991 -0.42433426 0 3
0.21987949 -1.579381 -0.42814106 0 3
0.24076818 -1.5863487 -0.43079987 0 3
0.25977251 -1.5803331 -0.43000117 0 3
0.28115728 -1.5881665 -0.43304056 0 3
0.29957503 -1.5788535 -0.43147302 0 3
0.3237811 -1.5988314 -0.43798757 0 3
0.37782475 -1.7545186 -0.48187318 0 3
0.40470493 -1.7731189 -0.4883115 0 3
0.42674151 -1.7691103 -0.48861578 0 3
0.45003957 -1.7699362 -0.49033523 0 3
0.46983603 -1.7570444 -0.48832732 0 3
0.49525416 -1.7648536 -0.49215305 0 3
0.51638949 -1.7568377 -0.49165124 0 3
0.54227209 -1.7644129 -0.49559975 0 3
0.56605124 -1.7642374 -0.49746794 0 3
0.5889048 -1.7607442 -0.49848717 0 3
0.61332065 -1.7614436 -0.50078243 0 3
0.6405924 -1.7694035 -0.50524676 0 3
0.65845066 -1.7511567 -0.5023104 0 3
0.68563581 -1.7575486 -0.50652397 0 3
0.70743352 -1.7495779 -0.50669551 0 3
0.74212813 -1.7723578 -0.51589668 0 3
0.76391011 -1.7632052 -0.51592773 0 3
0.7935949 -1.7716795 -0.52122337 0 3
0.8207404 -1.7735035 -0.52468944 0 3
0.84431505 -1.7671092 -0.52582943 0 3
0.87361592 -1.7720858 -0.53046679 0 3
0.90475357 -1.7797303 -0.53604496 0 3
0.92465097 -1.7648126 -0.53493589 0 3
0.95994818 -1.7786343 -0.54266232 0 3
0.98171097 -1.7666358 -0.54264361 0 3
1.005816 -1.7587285 -0.54397267 0 3
1.0392509 -1.766432 -0.55026633 0 3
1.0661483 -1.7622092 -0.55299294 0 3
1.1011751 -1.7705773 -0.55982572 0 3
1.1297613 -1.7676991 -0.5632655 0 3
1.1635982 -1.7722366 -0.56922752 0 3
0.96813148 -1.4357344 -0.46493435 0 3
0.96495062 -1.3937361 -0.45514205 0 3
0.96660984 -1.3600909 -0.44800237 0 3
0.96556056 -1.3238363 -0.43993804 0 3
0.97210068 -1.2989507 -0.43560743 0 3
0.96048129 -1.2510579 -0.42347512 0 3
0.96496511 -1.2254058 -0.41877684 0 3
0.97174805 -1.2032808 -0.41526788 0 3
0.96942836 -1.170663 -0.40809414 0 3
0.97085977 -1.143474 -0.40274721 0 3
0.97564858 -1.1208837 -0.39898598 0 3
0.97589558 -1.0937166 -0.39355743 0 3
0.97385514 -1.0647811 -0.38742512 0 3
0.97500658 -1.0400677 -0.3827664 0 3
0.9671191 -1.0065587 -0.37478262 0 3
0.97723752 -0.99237281 -0.37394667 0 3
0.96294188 -0.95410115 -0.36395943 0 3
0.97818375 -0.94565344 -0.36529768 0 3
0.96415377 -0.90942353 -0.35585523 0 3
0.98934019 -0.91045499 -0.36099181 0 3
1.045606 -0.93875426 -0.3772817 0 3
1.0863878 -0.95150518 -0.38774577 0 3
1.1347959 -0.96950775 -0.400738 0 3
1.1570222 -0.96414071 -0.40436974 0 3
1.2111346 -0.9842543 -0.41902003 0 3
1.2547058 -0.99429893 -0.42983204 0 3
1.3076761 -1.0103505 -0.44368878 0 3
1.3214885 -0.99531662 -0.44418907 0 3
1.4117328 -1.0363294 -0.47020382 0 3
1.4574971 -1.0425911 -0.48114008 0 3
1.1391245 -0.79385966 -0.37279022 0 3
1.144128 -0.77662265 -0.37127435 0 3
1.1601375 -0.76682371 -0.37338147 0 3
1.1586056 -0.74550509 -0.36991009 0 3
1.1711 -0.73334199 -0.37099215 0 3
1.1860985 -0.72258526 -0.37290055 0 3
1.2187675 -0.72209173 -0.38035113 0 3
1.2571504 -0.72409892 -0.38952148 0 3
1.28951 -0.72176909 -0.39676797 0 3
1.3178968 -0.71652085 -0.40276089 0 3
1.3652923 -0.72068274 -0.41450578 0 3
1.4172522 -0.72597086 -0.42753837 0 3
1.4409465 -0.71588033 -0.43199798 0 3
1.492577 -0.71878648 -0.44479343 0 3
1.5461218 -0.72128928 -0.4580723 0 3
1.5983915 -0.72187823 -0.47089288 0 3
1.6381228 -0.7157042 -0.47996888 0 3
1.703401 -0.71941382 -0.49646586 0 3
1.7633537 -0.71931559 -0.5113228 0 3
1.8295259 -0.72019958 -0.52790302 0 3
1.8918763 -0.71800512 -0.5433054 0 3
1.9608409 -0.71672243 -0.56053722 0 3
2.0612938 -0.72483522 -0.58666098 0 3
2.2122178 -0.74747175 -0.62695181 0 3
2.2059145 -0.71524531 -0.62262583 0 3
2.2028563 -0.68443757 -0.61934036 0 3
2.2174573 -0.65918881 -0.62111962 0 3
2.2017753 -0.62516767 -0.61452729 0 3
2.2020032 -0.59607434 -0.61249888 0 3
2.2062504 -0.56820363 -0.61169052 0 3
2.2109156 -0.5405069 -0.61109507 0 3
2.2017665 -0.50966412 -0.60678816 0 3
2.2067096 -0.48230085 -0.60647023 0 3
2.2061982 -0.45384091 -0.60475022 0 3
2.1945286 -0.4233844 -0.60007894 0 3
2.2139463 -0.39896041 -0.60400146 0 3
2.205415 -0.3694855 -0.60038906 0 3
2.2069359 -0.34189841 -0.59961325 0 3
2.2055311 -0.31396246 -0.5981375 0 3
2.2102396 -0.28695229 -0.59841228 0 3
2.2031367 -0.25852659 -0.5955835 0 3
2.2096848 -0.23178922 -0.59653807 0 3
0.7484284 -0.069215551 -0.20180461 0 3
0.87676334 -0.070223168 -0.23615788 0 3
1.0145966 -0.068719104 -0.27303529 0 3
1.477141 -0.08181569 -0.39720857 0 3
